# .PCD v0.7 - Point Cloud Data file format
VERSION 0.7
FIELDS x y z
SIZE 4 4 4
TYPE F F F
COUNT 1 1 1
WIDTH 1827
HEIGHT 1
VIEWPOINT 0 0 0 1 0 0 0
POINTS 1827
DATA ascii
1.6142098 0.60000002 0.25
2.8 0.58989996 0.57499999
2.825 0.59095019 0.60000002
2.8 0.5892306 0.60000002
2.825 0.59241748 0.57499999
2.8 0.59200269 0.55000001
2.8 0.59423822 0.52500004
2.8500001 0.59252495 0.60000002
3.8 -1.3042597 1.775
3.825 -1.3082488 1.775
3.8 -1.3076875 1.75
3.825 -1.3100572 1.75
3.825 -1.3071498 1.725
3.8500001 -1.310212 1.775
3.8500001 -1.3104393 1.75
3.8500001 -1.3090143 1.725
3.8500001 -1.3086766 1.7
3.8500001 -1.3160212 1.6750001
3.8500001 -1.3240738 1.65
3.875 -1.3118664 1.775
3.875 -1.3116666 1.75
3.875 -1.308861 1.725
3.875 -1.3099738 1.7
3.875 -1.314508 1.6750001
3.875 -1.3195032 1.65
3.9000001 -1.3104767 1.775
3.9000001 -1.3090574 1.75
3.9000001 -1.3078593 1.725
3.9000001 -1.3166369 1.7
3.8938134 -1.325 1.6750001
3.9000001 -1.325 1.6824436
3.9000001 -1.3265849 1.6750001
3.884131 -1.325 1.65
3.925 -1.3068345 1.775
3.925 -1.3078089 1.75
3.925 -1.3120673 1.725
3.925 -1.3167828 1.7
3.95 -1.312925 1.775
3.95 -1.3125027 1.75
3.95 -1.3168199 1.725
3.9750001 -1.3116544 1.775
3.9750001 -1.3122438 1.75
3.9750001 -1.3179606 1.725
3.9750001 -1.4 1.6231365
3.95 -1.39513 1.625
3.95 -1.4 1.6212209
4 -1.3126281 1.775
4 -1.3144233 1.75
4 -1.3998464 1.7
4 -1.4 1.7005551
3.999522 -1.4 1.7
3.9804573 -1.4 1.6750001
3.9768169 -1.4 1.625
3 0.5630061 1.575
3.0250001 0.56450951 1.6
3 0.56023693 1.6
3.0250001 0.5598349 1.575
3 0.56036824 1.5500001
3.0250001 0.56149751 1.5500001
3 0.5615772 1.525
3.0250001 0.56278402 1.525
3 0.56340808 1.5
3.0250001 0.56419557 1.5
3 0.56549668 1.475
3.0250001 0.56578112 1.475
3 0.56609756 1.45
3.0250001 0.56816041 1.45
3 0.5663867 1.4250001
3.0250001 0.56791472 1.4250001
3 0.56719202 1.4
3.0250001 0.56894553 1.4
3.05 0.56151348 1.6
3.05 0.56332093 1.575
3.05 0.56477982 1.5500001
3.05 0.56441385 1.525
3.05 0.56596994 1.5
3.05 0.56697607 1.475
3.05 0.57032853 1.45
3.05 0.56941712 1.4250001
3.05 0.57007492 1.4
3.075 0.56396246 1.6
3.075 0.56257057 1.575
3.075 0.56471944 1.5500001
3.075 0.56669241 1.525
3.075 0.56909508 1.5
3.075 0.56910747 1.475
3.075 0.40000001 1.4794654
3.075 0.4011797 1.475
3.0596993 0.40000001 1.475
3.075 0.56876439 1.45
3.075 0.40000001 1.4633014
3.075 0.56951165 1.4250001
3.075 0.57220489 1.4
3.1000001 0.56435198 1.6
3.1000001 0.5643791 1.575
3.1000001 0.56628865 1.5500001
3.1000001 0.56715429 1.525
3.1000001 0.569857 1.5
3.1000001 0.57284409 1.475
3.0891263 0.40000001 1.475
3.1000001 0.57078832 1.45
3.1000001 0.572474 1.4250001
3.1000001 0.5743944 1.4
3.125 0.56611806 1.6
3.125 0.56740063 1.575
3.125 0.56834191 1.5500001
3.125 0.57016367 1.525
3.125 0.57130516 1.5
3.125 0.57316846 1.475
3.125 0.57434171 1.45
3.1500001 0.56898236 1.6
3.1500001 0.56779921 1.575
3.1500001 0.57116628 1.5500001
3.1500001 0.57149738 1.525
3.1500001 0.57589787 1.5
3.1500001 0.57499999 1.50398
3.146395 0.57499999 1.5
3.1500001 0.57499999 1.477659
3.1500001 0.57491744 1.475
3.2 0.58183551 1.4
2 -1.2166013 0.34999999
2.0250001 -1.2167329 0.34999999
2 -1.2131439 0.32500002
2.0250001 -1.2137507 0.32500002
2 -1.3476759 0.32500002
2.0250001 -1.3373266 0.34999999
2 -1.3373731 0.34999999
2.0250001 -1.336725 0.32500002
2 -1.2116483 0.30000001
2.0250001 -1.2123995 0.30000001
2 -1.2089453 0.27500001
2.0250001 -1.2096184 0.27500001
2 -1.2051929 0.25
2.0250001 -1.2082677 0.25
2 -1.3381712 0.25
2.0250001 -1.3332118 0.27500001
2 -1.344457 0.27500001
2.0250001 -1.3328384 0.25
2.05 -1.2178293 0.34999999
2.05 -1.2155489 0.32500002
2.05 -1.2142361 0.30000001
2.05 -1.2120019 0.27500001
2.05 -1.2088962 0.25
2.075 -1.2184776 0.34999999
2.075 -1.2161202 0.32500002
2.075 -1.216108 0.30000001
2.075 -1.2135715 0.27500001
2.075 -1.212039 0.25
2.1000001 -1.3237205 0.34999999
2.1000001 -1.325 0.35151076
2.0979745 -1.325 0.34999999
2.1000001 -1.218614 0.32500002
2.0954645 -1.325 0.32500002
2.1000001 -1.3218389 0.32500002
2.1000001 -1.217523 0.30000001
2.0900617 -1.325 0.30000001
2.1000001 -1.3172237 0.30000001
2.1000001 -1.2147692 0.27500001
2.0925946 -1.325 0.27500001
2.1000001 -1.3195429 0.27500001
2.075 -1.3322842 0.27500001
2.075 -1.3326384 0.30000001
2.1000001 -1.2136234 0.25
2.1000001 -1.325 0.2599462
2.10376 -1.325 0.34999999
2.125 -1.2197831 0.32500002
2.125 -1.3208672 0.32500002
2.125 -1.325 0.33536884
2.125 -1.2192684 0.30000001
2.125 -1.3153881 0.30000001
2.125 -1.2151501 0.27500001
2.125 -1.3245639 0.27500001
2.125 -1.21494 0.25
2.125 -1.325 0.27100223
2.1500001 -1.2204884 0.32500002
2.1500001 -1.3209976 0.32500002
2.1500001 -1.325 0.33311889
2.125 -1.3316407 0.34999999
2.1500001 -1.3478041 0.34999999
2.1500001 -1.2202716 0.30000001
2.1500001 -1.3165183 0.30000001
2.1500001 -1.218141 0.27500001
2.1500001 -1.3152632 0.27500001
2.1500001 -1.2166767 0.25
2.1500001 -1.325 0.25622511
2.125 -1.3274626 0.25
2.1500001 -1.3347212 0.25
2.175 -1.3461416 0.375
2.175 -1.35 0.38190946
2.1500001 -1.35 0.39724061
2.1500001 -1.3359863 0.375
2.175 -1.3448223 0.34999999
2.1573312 -1.325 0.32500002
2.175 -1.2193427 0.30000001
2.164099 -1.325 0.30000001
2.175 -1.2191333 0.27500001
2.175 -1.3198265 0.27500001
2.175 -1.325 0.28131688
2.175 -1.3309888 0.30000001
2.175 -1.2165436 0.25
2.175 -1.325 0.26286983
2.175 -1.3285282 0.25
2.2 -1.3472677 0.375
2.2 -1.35 0.3905566
2.2 -1.3454348 0.34999999
2.2 -1.2207433 0.30000001
2.2 -1.2199084 0.27500001
2.1775758 -1.325 0.27500001
2.2 -1.3392071 0.27500001
2.2 -1.3357143 0.30000001
2.2 -1.2182221 0.25
2.2 -1.3410145 0.25
2.8 0.56451309 0.97500002
2.825 0.56725103 1
2.8 0.56591713 1
2.825 0.56608194 0.97500002
2.8 0.56659502 0.94999999
2.825 0.5680154 0.94999999
2.8 0.56929606 0.92500001
2.825 0.57075983 0.92500001
2.8 0.5718109 0.90000004
2.825 0.57381821 0.90000004
2.8 0.57198638 0.875
2.825 0.57346076 0.875
2.8 0.57274568 0.85000002
2.825 0.57401371 0.85000002
2.8500001 0.56825131 1
2.8500001 0.56841141 0.97500002
2.8500001 0.56984228 0.94999999
2.8500001 0.57256949 0.92500001
2.8500001 0.57343298 0.90000004
2.8500001 0.57445329 0.875
2.8500001 0.57595003 0.85000002
2.8500001 0.57499999 0.8659749
2.8378751 0.57499999 0.85000002
2.8500001 0.57713544 0.82499999
2.8500001 0.57839435 0.80000001
2.875 0.56954604 1
2.875 0.56922179 0.97500002
2.875 0.57140827 0.94999999
2.875 0.57405573 0.92500001
2.875 0.57532042 0.90000004
2.875 0.57499999 0.90639848
2.8706167 0.57499999 0.90000004
2.8731942 0.57499999 0.875
2.875 0.57504463 0.875
2.875 0.57693106 0.85000002
2.875 0.57895058 0.82499999
2.875 0.58051026 0.80000001
2.9000001 0.57064486 1
2.9000001 0.57085747 0.97500002
2.9000001 0.57211649 0.94999999
2.9000001 0.57557791 0.92500001
2.9000001 0.57499999 0.92906475
2.890552 0.57499999 0.92500001
2.9000001 0.57561612 0.90000004
2.9000001 0.57639784 0.875
2.9000001 0.57866567 0.85000002
2.9000001 0.58030027 0.82499999
2.9000001 0.58213711 0.80000001
2.925 0.57255244 1
2.925 0.57268453 0.97500002
2.925 0.57389063 0.94999999
2.925 0.57587963 0.92500001
2.925 0.57499999 0.9356665
2.925 0.57671708 0.90000004
2.925 0.57845581 0.875
2.925 0.58033389 0.85000002
2.925 0.58175105 0.82499999
2.925 0.58376515 0.80000001
2.95 0.57617503 0.94999999
2.95 0.57499999 0.96483415
2.9372778 0.57499999 0.94999999
2.95 0.5771181 0.92500001
2.95 0.57780671 0.90000004
2.95 0.57935756 0.875
2.95 0.581559 0.85000002
2.95 0.5842768 0.82499999
2.95 0.58546948 0.80000001
2.9750001 0.57601732 0.94999999
2.9750001 0.57876241 0.92500001
2.9750001 0.57925302 0.90000004
2.9750001 0.5810197 0.875
2.9750001 0.58272797 0.85000002
2.9750001 0.58527166 0.82499999
2.9750001 0.586981 0.80000001
3 0.57799709 0.94999999
3 0.57937545 0.92500001
3 0.58095545 0.90000004
3 0.58326954 0.875
3 0.58525592 0.85000002
3 0.58682054 0.82499999
3 0.58863515 0.80000001
4.8000002 -1.2356042 1.375
4.8250003 -1.2353734 1.4
4.8000002 -1.2385325 1.4
4.8250003 -1.2351122 1.375
4.8000002 -1.2370777 1.35
4.8250003 -1.2335867 1.35
4.8000002 -1.2358764 1.325
4.8250003 -1.2341038 1.325
4.8000002 -1.2363179 1.3000001
4.8250003 -1.235379 1.3000001
4.8000002 -1.2357469 1.275
4.8499999 -1.2388303 1.4
4.8499999 -1.2363871 1.375
4.8499999 -1.2362193 1.35
4.8499999 -1.2345686 1.325
4.875 -1.2355464 1.4
4.875 -1.2372693 1.375
4.875 -1.2364284 1.35
5 -1.2480276 1.4
5 -1.2487175 1.375
5 -1.2484545 1.35
5 -1.2479371 1.325
5 -1.25 1.312158
5 -1.2206949 1.2
5 -1.225 1.2167932
5 -1.234744 1.2
3.3 -1.3117474 1.325
3.3 -1.325 1.3325806
3.2848961 -1.325 1.325
3.3 -1.3290982 1.325
3.2882562 -1.325 1.3000001
3.3 -1.3011755 1.3000001
3.3 -1.3264413 1.3000001
3.2931325 -1.325 1.275
3.3 -1.3261998 1.275
3.3115273 -1.325 1.325
3.3038299 -1.325 1.3000001
2.6000001 0.58742541 0.375
2.625 0.58655804 0.40000001
2.6000001 0.58523452 0.40000001
2.625 0.59011668 0.375
2.6000001 0.59060526 0.34999999
2.625 0.59294724 0.34999999
2.6000001 0.59509057 0.32500002
2.625 0.59522241 0.32500002
2.6000001 0.59394348 0.30000001
2.625 0.59769309 0.30000001
2.6000001 0.5934369 0.27500001
2.625 0.59717786 0.27500001
2.6000001 0.59426063 0.25
2.625 0.59782857 0.25
2.6500001 0.58869308 0.40000001
2.6500001 0.59019643 0.375
2.6500001 0.59316987 0.34999999
2.6500001 0.59632379 0.32500002
2.6500001 0.59826803 0.30000001
2.6500001 0.59951967 0.27500001
2.6500001 0.60000002 0.26503763
2.6439409 0.60000002 0.25
2.675 0.58911902 0.40000001
2.675 0.59264368 0.375
2.675 0.5944767 0.34999999
2.675 0.59689069 0.32500002
2.675 0.59868324 0.30000001
2.675 0.60000002 0.28892729
2.6555994 0.60000002 0.27500001
2.7 0.59257549 0.40000001
2.7 0.59800863 0.32500002
2.7 0.60000002 0.3043085
2.6944931 0.60000002 0.30000001
4.2249999 0.48094925 0.25
4.2000003 0.47029901 0.25
4.2249999 0.4675467 0.25
4.2440476 0.47499999 0.25
4.2715564 0.47499999 0.25
4.2750001 0.47539303 0.25
4.2750001 0.4743197 0.25
4.2910209 0.5 0.25
4.3000002 0.50840878 0.25
4.3000002 0.46948099 0.25
4.3250003 0.50993365 0.25
4.3250003 0.46552983 0.25
4.3499999 0.50816905 0.25
4.3499999 0.46132764 0.25
4.3627934 0.5 0.25
4.375 0.48712617 0.25
4.375 0.45747668 0.25
4.4000001 0.48479691 0.25
4.4000001 0.4635337 0.25
4.4250002 -1.1393832 0.67500001
4.4250002 -1.1379838 0.65000004
4.4500003 -1.1408753 0.72500002
4.4500003 -1.1384126 0.69999999
4.4500003 -1.1369388 0.67500001
4.4500003 -1.1358926 0.65000004
4.4749999 -1.1397513 0.75
4.4749999 -1.1378663 0.72500002
4.4749999 -1.1355938 0.69999999
4.4749999 -1.1344938 0.67500001
4.4749999 -1.1336029 0.65000004
4.4749999 -1.1320258 0.625
4.5 -1.1386797 0.80000001
4.5 -1.1374968 0.77500004
4.5 -1.1367025 0.75
4.5 -1.1348273 0.72500002
4.5 -1.1331547 0.69999999
4.5 -1.1324323 0.67500001
4.5 -1.1313275 0.65000004
4.5250001 -1.1367837 0.80000001
4.5250001 -1.1353951 0.77500004
4.5250001 -1.1345218 0.75
4.5250001 -1.1326636 0.72500002
4.5250001 -1.130742 0.69999999
4.5250001 -1.1306973 0.67500001
4.5250001 -1.1294163 0.65000004
4.5500002 -1.133408 0.80000001
4.5500002 -1.1319423 0.77500004
4.5500002 -1.1308821 0.75
4.5500002 -1.129277 0.72500002
4.5500002 -1.1281809 0.69999999
4.5500002 -1.1272069 0.67500001
4.5500002 -1.1261523 0.65000004
4.5750003 -1.1285921 0.75
4.5750003 -1.12635 0.72500002
4.5750003 -1.125 0.70169389
4.5750003 -1.124864 0.69999999
4.5742393 -1.125 0.69999999
4.5665717 -1.125 0.67500001
4.5750003 -1.1234735 0.67500001
4.5892696 -1.125 0.75
4.5999999 -1.1215916 0.75
4.5810943 -1.125 0.72500002
4.5999999 -1.1198313 0.72500002
4.5999999 -1.1180724 0.69999999
4.5999999 -1.117228 0.67500001
1.8722394 -1.25 0.97500002
1.875 -1.2490629 0.97500002
1.8749605 -1.25 0.94999999
1.875 -1.2499822 0.94999999
1.8681014 -1.25 0.92500001
1.875 -1.2472808 0.92500001
1.8561108 -1.25 0.90000004
1.875 -1.2435553 0.90000004
1.875 -1.2423491 0.875
1.875 -1.2397345 0.85000002
1.875 -1.237614 0.82499999
1.875 -1.2359204 0.80000001
1.9 -1.2410547 1
1.9 -1.2418575 0.97500002
1.9 -1.2404897 0.94999999
1.9 -1.2384299 0.92500001
1.9 -1.2375695 0.90000004
1.9 -1.2357754 0.875
1.9 -1.2354753 0.85000002
1.9 -1.2346282 0.82499999
1.9 -1.2330506 0.80000001
1.9250001 -1.2378012 1
1.9250001 -1.2388793 0.97500002
1.9250001 -1.2371982 0.94999999
1.9250001 -1.2364212 0.92500001
1.9250001 -1.2354946 0.90000004
1.9250001 -1.2349968 0.875
1.9250001 -1.2338684 0.85000002
1.9250001 -1.2326056 0.82499999
1.9250001 -1.2329007 0.80000001
1.95 -1.2401806 1
1.95 -1.2400632 0.97500002
1.95 -1.2385763 0.94999999
1.95 -1.2364287 0.92500001
1.95 -1.2344757 0.90000004
1.95 -1.233682 0.875
1.95 -1.2326488 0.85000002
1.95 -1.2320994 0.82499999
1.95 -1.2319504 0.80000001
1.975 -1.2411126 1
1.975 -1.2417787 0.97500002
1.975 -1.2392505 0.94999999
1.975 -1.2369413 0.92500001
1.975 -1.2360129 0.90000004
1.975 -1.2353059 0.875
1.975 -1.2343167 0.85000002
1.975 -1.2335702 0.82499999
1.975 -1.2329032 0.80000001
2 -1.2434566 1
2 -1.2438248 0.97500002
2 -1.2396072 0.94999999
2 -1.2391883 0.92500001
2 -1.2368916 0.90000004
2 -1.2357168 0.875
2 -1.2356437 0.85000002
2 -1.2344737 0.82499999
2 -1.2329983 0.80000001
3 0.58985734 0.77500004
3.0250001 0.59001905 0.80000001
3 0.58863515 0.80000001
3.0250001 0.59227157 0.77500004
3 0.59230489 0.75
3.05 0.59157318 0.80000001
2.625 -1.2932074 1
2.6500001 -1.3024116 1.1750001
2.6500001 -1.3009747 1.15
2.6500001 -1.3000001 1.1407691
2.6500001 -1.2987561 1.125
2.6500001 -1.2978252 1.1
2.6500001 -1.2968897 1.075
2.6500001 -1.294886 1.0500001
2.6500001 -1.2925066 1.025
2.6500001 -1.2896528 1
2.6726096 -1.3000001 1.2
2.675 -1.2997019 1.2
2.6706209 -1.3000001 1.1750001
2.675 -1.2995311 1.1750001
2.6618736 -1.3000001 1.15
2.675 -1.2990656 1.15
2.675 -1.2976893 1.125
2.675 -1.2953939 1.1
2.675 -1.292956 1.075
2.675 -1.2918729 1.0500001
2.675 -1.2901766 1.025
2.675 -1.2870044 1
2.7 -1.2974479 1.2
2.7 -1.2968667 1.1750001
2.7 -1.2970706 1.15
2.7 -1.2963681 1.125
2.7 -1.2938514 1.1
2.7 -1.2906544 1.075
2.7 -1.2886361 1.0500001
2.7 -1.2874249 1.025
2.7 -1.2843655 1
2.7250001 -1.2934055 1.2
2.7250001 -1.2949331 1.1750001
2.7250001 -1.2961144 1.15
2.7250001 -1.2959632 1.125
2.7250001 -1.2923349 1.1
2.7250001 -1.2882655 1.075
2.7250001 -1.28587 1.0500001
2.7250001 -1.2831913 1.025
2.7250001 -1.2806647 1
2.75 -1.2889473 1.2
2.75 -1.2927035 1.1750001
2.75 -1.2942084 1.15
2.75 -1.2935195 1.125
2.75 -1.2898347 1.1
2.75 -1.2864423 1.075
2.75 -1.2822351 1.0500001
2.75 -1.2797291 1.025
2.75 -1.2777179 1
2.7750001 -1.2867068 1.2
2.7750001 -1.2909508 1.1750001
2.7750001 -1.2920752 1.15
2.7750001 -1.2918305 1.125
2.7750001 -1.285859 1.1
2.7750001 -1.2826688 1.075
2.7750001 -1.2792299 1.0500001
2.8 -1.2844458 1.2
2.8 -1.2875265 1.1750001
2.8 -1.2905569 1.15
2.8 -1.2881027 1.125
2.8 -1.2830921 1.1
2.8 -1.2798357 1.075
1.85 -0.76451099 0.25
1.8632587 -0.75 0.27500001
1.8732604 -0.69999999 0.25
1.875 -0.69767618 0.25
1.8734258 -0.72500002 0.25
1.86542 -0.75 0.25
1.8908501 -0.67500001 0.25
1.9 -0.66947907 0.25
1.9190521 -0.65000004 0.25
1.9250001 -0.64787465 0.25
1.9315662 -0.65000004 0.25
1.95 -0.65801591 0.25
1.975 -0.664379 0.25
1.9888657 -0.60000002 0.25
2 -0.60904521 0.25
2 -0.60000002 0.26026705
2 -0.67500001 0.2509273
2 -0.674429 0.25
5 0.4845461 1.775
5 0.44794312 1.775
5 0.48491412 1.75
5 0.45022154 1.75
5 0.45000002 1.7528933
5 0.48369989 1.725
5 0.45262024 1.725
5 0.4535349 1.7
3.4000001 0.5692268 1.775
3.425 0.56814092 1.775
3.4000001 0.57296962 1.75
3.425 0.57051533 1.75
3.425 0.57499999 1.736884
3.4010308 0.57499999 1.725
3.4000001 0.57479376 1.725
3.4000001 0.57499999 1.723864
3.4119728 0.40000001 1.725
3.45 0.57246429 1.775
3.45 0.5730828 1.75
3.45 0.57499999 1.7441489
3.4750001 0.57273793 1.775
3.4750001 0.58232802 1.75
3.4750001 0.57499999 1.7598966
3.4636376 0.57499999 1.75
3.5 0.58104271 1.775
3.5 0.57499999 1.7863711
3.4903343 0.57499999 1.775
3.5 0.59286779 1.75
3.5250001 0.5963645 1.775
3.5250001 0.60000002 1.7696192
3.5113285 0.60000002 1.75
3.5076873 0.40000001 1.75
3.5 0.40116087 1.75
3.55 0.59735507 1.775
3.55 0.60000002 1.773042
3.575 0.60000002 1.7926015
3.5538108 0.60000002 1.775
4.2750001 -1.475 1.3977821
4.2750001 -1.4718525 1.4
4.2732339 -1.475 1.4
4.2770348 -1.475 1.4
1.625 -1.258644 0.5
1.65 -1.2560334 0.52500004
1.65 -1.2548794 0.5
1.65 -1.2547745 0.47499999
1.6750001 -1.2528254 0.55000001
1.6750001 -1.2519691 0.52500004
1.6750001 -1.25 0.50302428
1.6750001 -1.2497668 0.5
1.6737798 -1.25 0.5
1.6750001 -1.25 0.49482632
1.6750001 -1.2510201 0.47499999
1.6750001 -1.25 0.46832347
1.6750001 -1.2475296 0.45000002
1.6568896 -1.25 0.45000002
1.682601 -1.25 0.52500004
1.7 -1.2464191 0.52500004
1.7 -1.2461236 0.5
1.683587 -1.25 0.47499999
1.7 -1.2480795 0.47499999
1.7 -1.2449384 0.45000002
4.6179152 -1.125 0.94999999
4.625 -1.1233286 0.94999999
4.6204319 -1.125 0.92500001
4.625 -1.124082 0.92500001
4.5999999 -1.1289586 0.92500001
4.618474 -1.125 0.90000004
4.625 -1.123492 0.90000004
4.5999999 -1.1288773 0.90000004
4.6148629 -1.125 0.875
4.625 -1.1226737 0.875
4.5999999 -1.1282364 0.875
4.6075778 -1.125 0.85000002
4.625 -1.1215206 0.85000002
4.5999999 -1.126462 0.85000002
4.625 -1.1207613 0.82499999
4.6500001 -1.1201344 1
4.6500001 -1.1205548 0.97500002
4.6500001 -1.1206466 0.94999999
4.6500001 -1.1207031 0.92500001
4.6500001 -1.1198884 0.90000004
4.6500001 -1.1188998 0.875
4.6500001 -1.1175196 0.85000002
4.6500001 -1.1168346 0.82499999
4.6500001 -1.1160314 0.80000001
4.6750002 -1.1161826 1
4.6750002 -1.1165327 0.97500002
4.6750002 -1.115999 0.94999999
4.6750002 -1.1155852 0.92500001
4.6750002 -1.1152823 0.90000004
4.6750002 -1.1148407 0.875
4.6750002 -1.1144027 0.85000002
4.6750002 -1.1126008 0.82499999
4.6750002 -1.1117785 0.80000001
4.7000003 -1.1118038 1
4.7000003 -1.1125091 0.97500002
4.7000003 -1.1121808 0.94999999
4.7000003 -1.1115302 0.92500001
4.7000003 -1.1108993 0.90000004
4.7000003 -1.110592 0.875
4.7000003 -1.1099463 0.85000002
4.7000003 -1.1082361 0.82499999
4.7000003 -1.1072776 0.80000001
4.7249999 -1.1076616 1
4.7249999 -1.1079102 0.97500002
4.7249999 -1.1076669 0.94999999
4.7249999 -1.1068735 0.92500001
4.7249999 -1.10703 0.90000004
4.7249999 -1.1069136 0.875
4.7249999 -1.1068232 0.85000002
4.7249999 -1.1048946 0.82499999
4.7249999 -1.1034931 0.80000001
4.75 -1.1036972 0.97500002
4.75 -1.1040682 0.94999999
4.75 -1.1039799 0.92500001
4.75 -1.1036373 0.90000004
4.75 -1.1037358 0.875
4.75 -1.1035129 0.85000002
4.75 -1.1019709 0.82499999
4.75 -1.1004158 0.80000001
4.7750001 -1.1008785 0.94999999
4.7750001 -1.1005586 0.92500001
4.7750001 -1.1000098 0.90000004
4.7750001 -1.1 0.89924079
4.7750001 -1.0997075 0.875
4.7731423 -1.1 0.875
4.7708859 -1.1 0.85000002
4.7750001 -1.099326 0.85000002
4.7639165 -1.1 0.82499999
4.7750001 -1.0984039 0.82499999
4.7535324 -1.1 0.80000001
4.7750001 -1.0975386 0.80000001
4.7808094 -1.1 0.94999999
4.8000002 -1.0976061 0.94999999
4.7781477 -1.1 0.92500001
4.8000002 -1.0967973 0.92500001
4.7750549 -1.1 0.90000004
4.8000002 -1.0963366 0.90000004
4.8000002 -1.0965536 0.875
4.8000002 -1.0959333 0.85000002
4.8000002 -1.0946134 0.82499999
4.8000002 -1.0934392 0.80000001
2 0.51274914 1.1750001
2.0250001 0.513735 1.2
2 0.51277155 1.2
2.0250001 0.51406747 1.1750001
2 0.51287401 1.15
2.0250001 0.51416022 1.15
2 0.51364064 1.125
2.0250001 0.51427519 1.125
2 0.51512009 1.1
2.0250001 0.5174191 1.1
2 0.51702505 1.075
2.0250001 0.51787251 1.075
2 0.51803339 1.0500001
2.0250001 0.52033979 1.0500001
2 0.51961344 1.025
2.0250001 0.52054691 1.025
2 0.52014017 1
2.0250001 0.52130646 1
2.05 0.51584733 1.2
2.05 0.51524991 1.1750001
2.05 0.51493669 1.15
2.05 0.51690167 1.125
2.05 0.51878136 1.1
2.05 0.52028507 1.075
2.05 0.52200145 1.0500001
2.05 0.52283508 1.025
2.05 0.52258319 1
2.075 0.51663494 1.2
2.075 0.51692128 1.1750001
2.075 0.51761371 1.15
2.075 0.51859945 1.125
2.075 0.52147764 1.1
2.075 0.52262378 1.075
2.075 0.5243513 1.0500001
2.075 0.52374429 1.025
2.075 0.52371168 1
2.1000001 0.51832473 1.2
2.1000001 0.51963061 1.1750001
2.1000001 0.5196389 1.15
2.1000001 0.52195376 1.125
2.1000001 0.52307528 1.1
2.1000001 0.52520478 1.075
2.1000001 0.52500004 1.0775276
2.0978992 0.52500004 1.075
2.1000001 0.52500004 1.0598134
2.1000001 0.52485549 1.0500001
2.1000001 0.52561229 1.025
2.1000001 0.52500004 1.0452943
2.0919442 0.52500004 1.025
2.0910897 0.52500004 1
2.125 0.52135384 1.2
2.125 0.52168071 1.1750001
2.125 0.52088922 1.15
2.125 0.52298647 1.125
2.125 0.5248428 1.1
2.125 0.52591485 1.075
2.125 0.52500004 1.0962367
2.1022613 0.52500004 1.0500001
2.125 0.52642596 1.0500001
2.125 0.52659321 1.025
2.125 0.52681142 1
2.1500001 0.52408594 1.125
2.1500001 0.52701586 1.1
2.1500001 0.52500004 1.1169446
2.1268117 0.52500004 1.1
2.1500001 0.52755189 1.075
2.1500001 0.52809662 1.0500001
2.1500001 0.52836055 1.025
2.1500001 0.52904612 1
2.175 0.5281691 1.1
2.175 0.52904648 1.075
2.175 0.52923483 1.0500001
2.175 0.53015471 1.025
2.175 0.52987438 1
2.2 0.52964538 1.1
2.2 0.52974594 1.075
2.2 0.53072029 1.0500001
2.2 0.53202873 1.025
2.2 0.53219432 1
2.4000001 -1.2650571 0.72500002
2.425 -1.2698439 0.72500002
2.4000001 -1.2641171 0.69999999
2.425 -1.2687 0.69999999
2.4000001 -1.263427 0.67500001
2.425 -1.2671049 0.67500001
2.4000001 -1.3835089 0.67500001
2.4000001 -1.3839959 0.65000004
2.4000001 -1.3842838 0.625
2.4000001 -1.384149 0.60000002
2.45 -1.2781993 0.75
2.4442296 -1.275 0.72500002
2.45 -1.2770534 0.72500002
2.4454811 -1.275 0.69999999
2.45 -1.2768911 0.69999999
2.45 -1.275 0.6827175
2.45 -1.2742078 0.67500001
2.4750001 -1.2813333 0.80000001
2.4750001 -1.2812171 0.77500004
2.4750001 -1.2805661 0.75
2.4750001 -1.2803744 0.72500002
2.4750001 -1.2798451 0.69999999
2.4536371 -1.275 0.67500001
2.4750001 -1.2793448 0.67500001
2.459645 -1.275 0.65000004
2.4750001 -1.2784156 0.65000004
2.5 -1.2836772 0.80000001
2.5 -1.283473 0.77500004
2.5 -1.282698 0.75
2.5 -1.2824122 0.72500002
2.5 -1.282166 0.69999999
2.5 -1.2812556 0.67500001
2.5 -1.2804704 0.65000004
2.5250001 -1.2865075 0.80000001
2.5250001 -1.2860007 0.77500004
2.5250001 -1.2862747 0.75
2.5250001 -1.2852433 0.72500002
2.5250001 -1.2847418 0.69999999
2.5250001 -1.2831804 0.67500001
2.55 -1.2888354 0.80000001
2.55 -1.2886295 0.77500004
2.55 -1.2876128 0.75
2.55 -1.2877201 0.72500002
2.55 -1.2860107 0.69999999
1.225 1.0128164 0.30000001
1.2 1.0209835 0.27500001
1.225 1.0128214 0.27500001
1.2 1.0209144 0.25
1.225 1.0117342 0.25
1.25 1.0045092 0.30000001
1.25 1.0032085 0.27500001
1.25 1.0032157 0.25
1.2674319 1 0.30000001
1.275 1.0007477 0.27500001
1.275 1 0.28306207
1.275 1.0041628 0.25
1.2801021 1 0.27500001
1.2914194 1 0.25
2.2250001 0.55503571 0.55000001
2.2 0.55402398 0.52500004
2.2250001 0.55445498 0.52500004
2.2 0.55515712 0.5
2.2250001 0.55673301 0.5
2.2 0.55629414 0.47499999
2.2250001 0.55650806 0.47499999
2.2 0.55707234 0.45000002
2.2250001 0.55883545 0.45000002
2.2 0.55986106 0.42500001
2.2250001 0.56211871 0.42500001
2.2 0.56021649 0.40000001
2.2250001 0.56195533 0.40000001
2.25 0.55460566 0.57499999
2.25 0.556261 0.55000001
2.25 0.5567199 0.52500004
2.25 0.55869621 0.5
2.25 0.55846107 0.47499999
2.25 0.5607146 0.45000002
2.25 0.56316417 0.42500001
2.25 0.56375504 0.40000001
2.2750001 0.5549702 0.60000002
2.2750001 0.55687153 0.57499999
2.2750001 0.55720943 0.55000001
2.2750001 0.55862945 0.52500004
2.2750001 0.56018722 0.5
2.2750001 0.5603351 0.47499999
2.2750001 0.56239587 0.45000002
2.2750001 0.56418777 0.42500001
2.2750001 0.5653401 0.40000001
2.3 0.55690694 0.60000002
2.3 0.55808699 0.57499999
2.3 0.55814373 0.55000001
2.3 0.56055886 0.52500004
2.3 0.5607627 0.5
2.3 0.56196797 0.47499999
2.3 0.56399137 0.45000002
2.3 0.56664366 0.42500001
2.3 0.56764305 0.40000001
2.325 0.55845982 0.60000002
2.325 0.56000441 0.57499999
2.325 0.55992812 0.55000001
2.325 0.56244624 0.52500004
2.325 0.56295729 0.5
2.325 0.56431079 0.47499999
2.325 0.56563741 0.45000002
2.325 0.56756771 0.42500001
2.325 0.56921715 0.40000001
2.3500001 0.56054938 0.60000002
2.3500001 0.56190228 0.57499999
2.3500001 0.5613336 0.55000001
2.3500001 0.56357086 0.52500004
2.3500001 0.56484634 0.5
2.3500001 0.56544656 0.47499999
2.3500001 0.5680424 0.45000002
2.3500001 0.56892818 0.42500001
2.3500001 0.57092798 0.40000001
2.375 0.56229323 0.60000002
2.375 0.56340271 0.57499999
2.375 0.56248558 0.55000001
2.375 0.56405354 0.52500004
2.375 0.56482428 0.5
2.375 0.56750029 0.47499999
2.375 0.56960982 0.45000002
2.375 0.5710417 0.42500001
2.4000001 0.56445807 0.60000002
2.4000001 0.56554455 0.57499999
2.4000001 0.56444788 0.55000001
2.4000001 0.56637049 0.52500004
2.4000001 0.56665099 0.5
2.4000001 0.56880403 0.47499999
2.4000001 0.5711059 0.45000002
3.825 0.47499999 0.53507346
3.825 0.47518349 0.52500004
3.8231957 0.47499999 0.52500004
3.825 0.4747273 0.52500004
3.8103237 0.47499999 0.5
3.825 0.47616982 0.5
3.825 0.47308922 0.5
3.8105397 0.47499999 0.47499999
3.8014531 0.5 0.45000002
3.8 0.50007308 0.45000002
3.8 0.5 0.45013043
3.8 0.49945688 0.45000002
3.8 0.5 0.44564667
3.8045495 0.5 0.42500001
3.8157604 0.5 0.40000001
3.8500001 0.47499999 0.58081812
3.8500001 0.49152884 0.57499999
3.8411434 0.47499999 0.57499999
3.8500001 0.47378513 0.57499999
3.8291123 0.47499999 0.55000001
3.8500001 0.47674552 0.55000001
3.8500001 0.47293112 0.55000001
3.8671029 0.5 0.60000002
3.875 0.50073397 0.60000002
3.8560758 0.5 0.57499999
3.875 0.49779889 0.60000002
3.8530369 0.47499999 0.57499999
4.4118662 -1.35 1.775
4.4000001 -1.3430477 1.775
4.4250002 -1.3601969 1.775
4.4083118 -1.35 1.75
4.4000001 -1.3459877 1.75
4.4250002 -1.3628086 1.75
4.4100113 -1.35 1.725
4.4000001 -1.3454272 1.725
4.4250002 -1.3615546 1.725
4.4500003 -1.3558921 1.775
4.4500003 -1.3541287 1.75
4.4500003 -1.3536685 1.725
4.4749999 -1.355934 1.775
4.4749999 -1.3559974 1.75
4.4749999 -1.3554102 1.725
4.5 -1.351395 1.775
4.5 -1.35 1.7526047
4.5 -1.3499197 1.75
4.499794 -1.35 1.75
4.5 -1.35 1.7456201
4.5 -1.3506202 1.725
4.5022411 -1.35 1.775
4.5250001 -1.3460641 1.775
4.5250001 -1.3451115 1.75
4.5250001 -1.35 1.735178
4.5351892 -1.35 1.775
4.5500002 -1.3610262 1.775
4.5361838 -1.35 1.75
4.5500002 -1.3601354 1.75
4.5750003 -1.35 1.778797
4.5750003 -1.3503869 1.775
4.5750003 -1.3515961 1.75
4.5750003 -1.35 1.7384351
4.5999999 -1.3581041 1.775
4.5999999 -1.356636 1.75
4.625 -1.1026658 0.55000001
4.5999999 -1.105956 0.52500004
4.625 -1.1010206 0.52500004
4.625 -1.1 0.51386172
4.625 -1.0989325 0.5
4.6184268 -1.1 0.5
4.5999999 -1.1035222 0.5
4.6067271 -1.1 0.47499999
4.625 -1.097138 0.47499999
4.5999999 -1.1012394 0.47499999
4.625 -1.0960218 0.45000002
4.6500001 -1.1 0.58039165
4.6500001 -1.0996723 0.57499999
4.6477199 -1.1 0.57499999
4.6372347 -1.1 0.55000001
4.6500001 -1.0978742 0.55000001
4.6299505 -1.1 0.52500004
4.6500001 -1.0967215 0.52500004
4.6500001 -1.0950028 0.5
4.6500001 -1.0929278 0.47499999
4.6500001 -1.0915395 0.45000002
4.6591473 -1.1 0.60000002
4.6750002 -1.0979745 0.60000002
4.6750002 -1.0966808 0.57499999
4.6750002 -1.0950681 0.55000001
4.6750002 -1.0944225 0.52500004
4.6750002 -1.0922793 0.5
4.6750002 -1.0900781 0.47499999
4.6750002 -1.0875152 0.45000002
4.6750002 -1.085349 0.42500001
4.6750002 -1.0829743 0.40000001
4.7000003 -1.0949157 0.60000002
4.7000003 -1.0929228 0.57499999
4.7000003 -1.091567 0.55000001
4.7000003 -1.0901144 0.52500004
4.7000003 -1.0883573 0.5
4.7000003 -1.0862507 0.47499999
4.7000003 -1.0844957 0.45000002
4.7000003 -1.0823087 0.42500001
4.7000003 -1.0802215 0.40000001
4.7249999 -1.0913733 0.60000002
4.7249999 -1.0896777 0.57499999
4.7249999 -1.0880569 0.55000001
4.7249999 -1.0865345 0.52500004
4.7249999 -1.084536 0.5
4.7249999 -1.0824459 0.47499999
4.7249999 -1.0807207 0.45000002
4.7249999 -1.0786233 0.42500001
4.7249999 -1.0764798 0.40000001
4.75 -1.0877875 0.60000002
4.75 -1.0858101 0.57499999
4.75 -1.0843757 0.55000001
4.75 -1.0831945 0.52500004
4.75 -1.0815247 0.5
4.75 -1.0794331 0.47499999
4.75 -1.0766319 0.45000002
4.7750001 -1.0793496 0.52500004
4.7750001 -1.0777957 0.5
3.6500001 0.40000001 1.4750972
3.6500001 0.40000668 1.475
3.6499417 0.40000001 1.475
3.6500001 0.40000001 1.4746385
3.6501865 0.40000001 1.475
3.7 0.40000001 1.4862139
3.7 0.4007996 1.475
3.6892536 0.40000001 1.475
3.67873 0.40000001 1.45
3.7 0.40096888 1.45
3.7 0.40000001 1.4330243
3.7250001 0.40000001 1.4826154
3.7250001 0.4004949 1.475
3.7250001 0.400352 1.45
3.7250001 0.40000001 1.4451259
3.75 0.40000001 1.5020233
3.75 0.40024683 1.5
3.7442091 0.40000001 1.5
3.75 0.40032741 1.475
3.7300491 0.40000001 1.45
3.75 0.40000001 1.4689034
3.7750001 0.40000001 1.5011672
3.7750001 0.40010872 1.5
3.7750001 0.40055719 1.475
3.7750001 0.40000001 1.4639326
3.7983387 0.40000001 1.6
3.8 0.40033904 1.6
3.7999616 0.40000001 1.575
3.8 0.40000415 1.575
3.8 0.40000001 1.5749369
3.7866523 0.40000001 1.5
3.8 0.40000001 1.4972262
3.8 0.40106183 1.475
3.8 0.40000001 1.4652854
1.4250001 -1.2699965 0.32500002
1.4 -1.2685896 0.30000001
1.4250001 -1.266888 0.30000001
1.4 -1.2673419 0.27500001
1.4250001 -1.2666143 0.27500001
1.4 -1.2652773 0.25
1.4250001 -1.2644395 0.25
1.45 -1.2660681 0.32500002
1.45 -1.2628504 0.30000001
1.45 -1.2626938 0.27500001
1.45 -1.2640005 0.25
1.475 -1.2641615 0.34999999
1.475 -1.2621789 0.32500002
1.475 -1.2593131 0.30000001
1.475 -1.2602838 0.27500001
1.475 -1.2618966 0.25
1.5 -1.2622991 0.34999999
1.5 -1.2585697 0.32500002
1.5 -1.2548456 0.30000001
1.5 -1.2564588 0.27500001
1.5 -1.2580059 0.25
1.525 -1.2595271 0.34999999
1.525 -1.2572414 0.32500002
1.525 -1.2554818 0.30000001
1.525 -1.2556351 0.27500001
1.525 -1.2541841 0.25
1.5165169 -1.4 0.25
1.525 -1.3938046 0.25
1.5500001 -1.2583275 0.34999999
1.5500001 -1.2541333 0.32500002
1.5500001 -1.2538452 0.30000001
1.5500001 -1.2535882 0.27500001
1.5500001 -1.2512752 0.25
1.5500001 -1.3950478 0.25
1.575 -1.2532572 0.32500002
1.575 -1.251901 0.30000001
1.575 -1.2502425 0.27500001
1.575 -1.25 0.26987347
1.575 -1.2489791 0.25
1.5645093 -1.25 0.25
1.575 -1.3992833 0.25
1.575 -1.4 0.2628828
1.6 -1.25 0.33151889
1.6 -1.2495254 0.32500002
1.5972674 -1.25 0.32500002
1.5877441 -1.25 0.30000001
1.6 -1.2480723 0.30000001
1.577497 -1.25 0.27500001
1.6 -1.2476228 0.27500001
1.6 -1.2448722 0.25
1.6 -1.3829416 0.25
2.2 0.53153962 0.97500002
2.2250001 0.534118 1
2.2 0.53219432 1
2.2250001 0.53343481 0.97500002
2.2 0.53243685 0.94999999
2.2250001 0.53404754 0.94999999
2.2 0.53247374 0.92500001
2.2250001 0.53410405 0.92500001
2.2 0.53307456 0.90000004
2.2250001 0.5349915 0.90000004
2.2 0.53381151 0.875
2.2250001 0.53592873 0.875
2.2 0.53377569 0.85000002
2.2250001 0.53607482 0.85000002
2.2 0.53626043 0.82499999
2.2250001 0.53776425 0.82499999
2.2 0.53737468 0.80000001
2.2250001 0.53888685 0.80000001
2.25 0.53593677 1
2.25 0.53544676 0.97500002
2.25 0.53533542 0.94999999
2.25 0.53530866 0.92500001
2.25 0.53615052 0.90000004
2.25 0.5368427 0.875
2.25 0.53847402 0.85000002
2.25 0.54016173 0.82499999
2.25 0.54086173 0.80000001
2.2750001 0.53728718 1
2.2750001 0.53716153 0.97500002
2.2750001 0.53665072 0.94999999
2.2750001 0.53650731 0.92500001
2.2750001 0.53751105 0.90000004
2.2750001 0.53845817 0.875
2.2750001 0.53985679 0.85000002
2.2750001 0.54118747 0.82499999
2.2750001 0.54289347 0.80000001
2.3 0.53917021 1
2.3 0.53824347 0.97500002
2.3 0.53813517 0.94999999
2.3 0.53799766 0.92500001
2.3 0.53962296 0.90000004
2.3 0.54037213 0.875
2.3 0.54178202 0.85000002
2.3 0.54299277 0.82499999
2.3 0.54501665 0.80000001
2.325 0.53955823 1
2.325 0.53930306 0.97500002
2.325 0.53918809 0.94999999
2.325 0.53915936 0.92500001
2.325 0.54078984 0.90000004
2.325 0.54181927 0.875
2.325 0.54322284 0.85000002
2.325 0.54503411 0.82499999
2.325 0.54653496 0.80000001
2.3500001 0.54064792 1
2.3500001 0.54043156 0.97500002
2.3500001 0.54085153 0.94999999
2.3500001 0.54046702 0.92500001
2.3500001 0.54205245 0.90000004
2.3500001 0.54370612 0.875
2.3500001 0.54510856 0.85000002
2.3500001 0.54695326 0.82499999
2.375 0.54158086 1
2.375 0.5413388 0.97500002
2.375 0.5417192 0.94999999
2.375 0.54208773 0.92500001
2.375 0.54364485 0.90000004
2.375 0.54510653 0.875
2.375 0.54709756 0.85000002
2.4000001 0.54275954 1
2.4000001 0.54235446 0.97500002
2.4000001 0.5432952 0.94999999
2.4000001 0.54323405 0.92500001
2.4000001 0.54468697 0.90000004
2.4000001 0.54611981 0.875
2.4000001 0.54849052 0.85000002
3.8500001 0.40000001 0.86680138
4 0.40000001 0.87679404
5 -1.2487175 1.375
5 -1.2480276 1.4
5 -1.2484545 1.35
5 -1.2479371 1.325
5 -1.25 1.312158
5 -1.2206949 1.2
5 -1.225 1.2167932
5 -1.234744 1.2
3.45 -1.2713487 1.325
3.45 -1.275 1.336696
3.4442501 -1.275 1.325
3.45 -1.2788656 1.325
3.4386976 -1.275 1.3000001
3.4750001 -1.2674911 1.35
3.4750001 -1.275 1.3613621
3.456929 -1.275 1.35
3.4750001 -1.2834576 1.35
3.5 -1.2724135 1.375
3.5 -1.275 1.3877267
3.4964314 -1.275 1.375
3.5 -1.2770817 1.375
2.4000001 0.57650679 0.34999999
2.425 0.57751322 0.34999999
2.4000001 0.57782859 0.32500002
2.425 0.57866365 0.32500002
2.4000001 0.57855284 0.30000001
2.425 0.58071184 0.30000001
2.4000001 0.5787701 0.27500001
2.425 0.5800367 0.27500001
2.4000001 0.58022583 0.25
2.425 0.58315331 0.25
2.45 0.57620853 0.40000001
2.45 0.57745999 0.375
2.45 0.57873577 0.34999999
2.45 0.58041388 0.32500002
2.45 0.58027333 0.30000001
2.45 0.58280814 0.27500001
2.45 0.58489674 0.25
2.4750001 0.57689017 0.40000001
2.4750001 0.57954568 0.375
2.4750001 0.5818457 0.34999999
2.4750001 0.58230054 0.32500002
2.4750001 0.58500761 0.30000001
2.4750001 0.58462948 0.27500001
2.4750001 0.58730978 0.25
2.5 0.57921892 0.40000001
2.5 0.58083063 0.375
2.5 0.58332765 0.34999999
2.5 0.58591455 0.32500002
2.5 0.58527672 0.30000001
2.5 0.5870015 0.27500001
2.5 0.58801484 0.25
2.5250001 0.579817 0.40000001
2.5250001 0.58379215 0.375
2.5250001 0.58601648 0.34999999
2.5250001 0.58676738 0.32500002
2.5250001 0.58795911 0.30000001
2.5250001 0.58849114 0.27500001
2.5250001 0.58883232 0.25
2.55 0.582111 0.40000001
2.55 0.58539999 0.375
2.55 0.58743864 0.34999999
2.55 0.59042299 0.32500002
2.55 0.58992648 0.30000001
2.55 0.59140676 0.27500001
2.55 0.59111404 0.25
2.575 0.58383 0.40000001
2.575 0.58699059 0.375
2.575 0.58979678 0.34999999
2.575 0.59187573 0.32500002
2.575 0.59279364 0.30000001
2.575 0.59266633 0.27500001
2.575 0.59318668 0.25
2.6000001 0.58523452 0.40000001
2.6000001 0.58742541 0.375
2.6000001 0.59060526 0.34999999
2.6000001 0.59509057 0.32500002
2.6000001 0.59394348 0.30000001
2.6000001 0.5934369 0.27500001
2.6000001 0.59426063 0.25
4 0.50427461 0.25
4.0250001 0.50478911 0.25
4 0.4779399 0.25
4.0119624 0.47499999 0.25
4.0250001 0.47394252 0.25
4.0500002 0.50029582 0.25
4.0274348 0.47499999 0.25
4.0500002 0.49898592 0.25
4.0504265 0.5 0.25
4.0983949 0.5 0.25
4.0999999 0.50115687 0.25
4.0999999 0.49434957 0.25
4.125 0.50542706 0.25
4.125 0.48103777 0.25
4.1500001 0.50620168 0.25
4.1500001 0.4761095 0.25
4.1750002 0.50364828 0.25
4.1555872 0.47499999 0.25
4.1750002 0.47114643 0.25
4.1866751 0.5 0.25
4.2000003 0.47029901 0.25
2.8 0.55891043 1.375
2.825 0.55909908 1.4
2.8 0.55911201 1.4
2.825 0.55772752 1.375
2.8 0.55658919 1.35
2.825 0.55772179 1.35
2.8 0.55652714 1.325
2.825 0.55826014 1.325
2.8 0.55657613 1.3000001
2.825 0.55873066 1.3000001
2.8 0.5578689 1.275
2.825 0.55925071 1.275
2.8 0.55967516 1.25
2.825 0.56104416 1.25
2.8 0.56115001 1.225
2.825 0.56225955 1.225
2.8 0.56237984 1.2
2.825 0.56352681 1.2
2.8500001 0.56008273 1.4
2.8500001 0.55815679 1.375
2.8500001 0.55945659 1.35
2.8500001 0.55853301 1.325
2.8500001 0.55927181 1.3000001
2.8500001 0.56086051 1.275
2.8500001 0.56243914 1.25
2.8500001 0.5641855 1.225
2.8500001 0.56510115 1.2
2.875 0.56156558 1.4
2.875 0.56002635 1.375
2.875 0.55984902 1.35
2.875 0.55958211 1.325
2.875 0.56038618 1.3000001
2.875 0.56167603 1.275
2.875 0.56396437 1.25
2.875 0.56574172 1.225
2.875 0.56643611 1.2
2.9000001 0.56156462 1.4
2.9000001 0.56108677 1.375
2.9000001 0.56059492 1.35
2.9000001 0.56131095 1.325
2.9000001 0.56162548 1.3000001
2.9000001 0.56350219 1.275
2.9000001 0.56548911 1.25
2.9000001 0.567693 1.225
2.9000001 0.56854779 1.2
2.925 0.5627628 1.4
2.925 0.56273586 1.375
2.925 0.5623306 1.35
2.925 0.56241375 1.325
2.925 0.56308079 1.3000001
2.925 0.56475955 1.275
2.925 0.56754488 1.25
2.925 0.56904018 1.225
2.925 0.57025015 1.2
2.95 0.56379926 1.4
2.95 0.56469357 1.375
2.95 0.56417418 1.35
2.95 0.5642029 1.325
2.95 0.56509483 1.3000001
2.95 0.56692904 1.275
2.95 0.56990933 1.25
2.95 0.57063484 1.225
2.95 0.57287902 1.2
2.9750001 0.56509781 1.4
2.9750001 0.56551212 1.375
2.9750001 0.56635022 1.35
2.9750001 0.566248 1.325
2.9750001 0.56745243 1.3000001
2.9750001 0.5689761 1.275
2.9750001 0.57167691 1.25
2.9750001 0.5731892 1.225
3 0.56719202 1.4
3 0.56766403 1.375
3 0.56774235 1.35
3 0.56752253 1.325
3 0.56939745 1.3000001
3 0.57192987 1.275
3 0.57344478 1.25
2.425 0.55495924 0.77500004
2.4000001 0.55387723 0.75
2.425 0.55510825 0.75
2.4000001 0.55453485 0.72500002
2.425 0.55619884 0.72500002
2.4000001 0.55614841 0.69999999
2.425 0.55758989 0.69999999
2.4000001 0.5574078 0.67500001
2.425 0.55945623 0.67500001
2.4000001 0.55936903 0.65000004
2.425 0.56094396 0.65000004
2.4000001 0.56234503 0.625
2.425 0.56406456 0.625
2.4000001 0.56445807 0.60000002
2.425 0.56590056 0.60000002
2.45 0.55476779 0.80000001
2.45 0.55602491 0.77500004
2.45 0.5562948 0.75
2.45 0.5577029 0.72500002
2.45 0.55894011 0.69999999
2.45 0.5606674 0.67500001
2.45 0.56299883 0.65000004
2.45 0.56503505 0.625
2.45 0.56760949 0.60000002
2.4750001 0.55584258 0.80000001
2.4750001 0.557634 0.77500004
2.4750001 0.55793893 0.75
2.4750001 0.55839437 0.72500002
2.4750001 0.56002694 0.69999999
2.4750001 0.56268781 0.67500001
2.4750001 0.56435561 0.65000004
2.4750001 0.56638688 0.625
2.4750001 0.56859213 0.60000002
2.5 0.55708826 0.80000001
2.5 0.55846137 0.77500004
2.5 0.55967414 0.75
2.5 0.56007534 0.72500002
2.5 0.5610559 0.69999999
2.5 0.56366897 0.67500001
2.5 0.56630272 0.65000004
2.5 0.56757516 0.625
2.5 0.56952161 0.60000002
2.5250001 0.55787188 0.80000001
2.5250001 0.55976528 0.77500004
2.5250001 0.56174916 0.75
2.5250001 0.5617606 0.72500002
2.5250001 0.56290025 0.69999999
2.5250001 0.56500828 0.67500001
2.5250001 0.56739515 0.65000004
2.5250001 0.56940168 0.625
2.5250001 0.57091731 0.60000002
2.55 0.55968893 0.80000001
2.55 0.56087106 0.77500004
2.55 0.56277323 0.75
2.55 0.56366777 0.72500002
2.55 0.56427723 0.69999999
2.55 0.56576198 0.67500001
2.55 0.56793684 0.65000004
2.55 0.57032204 0.625
2.55 0.57163733 0.60000002
2.575 0.56126821 0.80000001
2.575 0.5621689 0.77500004
2.575 0.56304127 0.75
2.575 0.5649271 0.72500002
2.575 0.56603658 0.69999999
2.575 0.56726164 0.67500001
2.575 0.57016575 0.65000004
2.575 0.57099438 0.625
2.6000001 0.56348377 0.80000001
2.6000001 0.56333828 0.77500004
2.6000001 0.56455982 0.75
2.6000001 0.56637067 0.72500002
2.6000001 0.56713766 0.69999999
2.6000001 0.56854373 0.67500001
2.6000001 0.57159442 0.65000004
4.0250001 0.5 0.7578792
4.0250001 0.50004745 0.75
4.0241556 0.5 0.75
4.0250001 0.49887046 0.75
4.0181479 0.5 0.72500002
4.0250001 0.50048155 0.72500002
4.0488038 0.5 0.80000001
4.0500002 0.50004637 0.80000001
4.0274534 0.5 0.77500004
4.0500002 0.50091481 0.77500004
4.0500002 0.49986148 0.80000001
4.0500002 0.49737602 0.77500004
4.0500002 0.50152892 0.75
4.0500002 0.49557829 0.75
4.0531859 0.5 0.77500004
4.0501051 0.5 0.80000001
2 -1.2312232 1.1750001
2 -1.2351307 1.2
2.0250001 -1.2333058 1.1750001
2 -1.2322512 1.15
2.0250001 -1.2346941 1.15
2 -1.2331063 1.125
2.0250001 -1.2362759 1.125
2 -1.2346352 1.1
2.0250001 -1.238862 1.1
2 -1.2349521 1.075
2.0250001 -1.2389085 1.075
2 -1.2362524 1.0500001
2.0250001 -1.2400359 1.0500001
2 -1.240641 1.025
2.0250001 -1.2423546 1.025
2 -1.2434566 1
2.0250001 -1.2446188 1
2.05 -1.2402967 1.1750001
2.05 -1.2404937 1.15
2.05 -1.2380672 1.125
2.05 -1.2407309 1.1
2.05 -1.2425992 1.075
2.05 -1.24359 1.0500001
2.05 -1.2466959 1.025
2.05 -1.2472683 1
2.075 -1.2434114 1.1750001
2.075 -1.2432145 1.15
2.075 -1.2414827 1.125
2.075 -1.2419473 1.1
2.075 -1.2435426 1.075
2.075 -1.2435453 1.0500001
2.075 -1.2489288 1.025
2.075 -1.2493303 1
2.1000001 -1.2432048 1.1750001
2.1000001 -1.2433265 1.15
2.1000001 -1.2442518 1.125
2.1000001 -1.2450306 1.1
2.1000001 -1.2466824 1.075
2.1000001 -1.2467812 1.0500001
2.125 -1.2437267 1.15
2.125 -1.2452296 1.125
2.125 -1.2459521 1.1
2.125 -1.2476418 1.075
2.1189864 -1.25 1.0500001
2.125 -1.25 1.0579925
2.1500001 -1.2469262 1.125
2.1500001 -1.2471246 1.1
2.1500001 -1.3855296 1.1750001
2.175 -1.3897809 1.1750001
2.1500001 -1.3855636 1.15
2.175 -1.3876799 1.15
2.1500001 -1.3858969 1.125
2.175 -1.3885674 1.125
2.2 -1.3897693 1.15
2.2 -1.3885173 1.125
2.175 -1.3568878 1
2.185708 -1.375 1
2.175 -1.375 1.0106666
2.2 -1.3856949 1
2.175 -1.3857216 1.025
2.2 -1.3851479 1.025
4.4000001 0.48325726 1.775
4.4250002 0.48197421 1.775
4.4000001 0.45872283 1.775
4.4250002 0.45766172 1.775
4.4500003 0.47924811 1.775
4.4500003 0.4589451 1.775
4.4749999 0.48023066 1.775
4.4749999 0.4549008 1.775
4.5 0.48126397 1.775
4.4906483 0.45000002 1.775
4.5 0.44862968 1.775
4.5250001 0.48223743 1.775
4.5250001 0.44640371 1.775
4.5500002 0.48321438 1.775
4.5500002 0.44364068 1.775
4.5750003 0.48440677 1.775
4.5750003 0.44319412 1.775
4.5999999 0.48407823 1.775
4.5999999 0.44381285 1.775
2.2 -1.228155 0.52500004
2.2250001 -1.2290636 0.52500004
2.2 -1.2327724 0.5
2.2250001 -1.2322676 0.5
2.2 -1.2300448 0.47499999
2.2250001 -1.2314857 0.47499999
2.2250001 -1.2304623 0.45000002
2.25 -1.2330003 0.55000001
2.25 -1.2304311 0.52500004
2.25 -1.2329495 0.5
2.25 -1.2326974 0.47499999
2.25 -1.2313001 0.45000002
2.25 -1.2309591 0.42500001
2.25 -1.3433832 0.40000001
2.25 -1.35 0.40597507
2.2332597 -1.35 0.40000001
2.2750001 -1.2400664 0.60000002
2.2750001 -1.238866 0.57499999
2.2750001 -1.2377352 0.55000001
2.2750001 -1.2363409 0.52500004
2.2750001 -1.2377399 0.5
2.2750001 -1.2370037 0.47499999
2.2750001 -1.236092 0.45000002
2.2750001 -1.2341201 0.42500001
2.2750001 -1.2325215 0.40000001
2.2750001 -1.3444301 0.40000001
2.2750001 -1.35 0.40678245
2.2750001 -1.375 0.40777484
2.25 -1.375 0.40715286
2.3 -1.2425225 0.60000002
2.3 -1.2420955 0.57499999
2.3 -1.2418509 0.55000001
2.3 -1.240858 0.52500004
2.3 -1.2411829 0.5
2.3 -1.2406987 0.47499999
2.3 -1.2401769 0.45000002
2.3 -1.2395101 0.42500001
2.3 -1.238454 0.40000001
2.2938716 -1.35 0.40000001
2.3 -1.3516475 0.40000001
2.3 -1.375 0.41138479
2.325 -1.2452645 0.60000002
2.325 -1.2444109 0.57499999
2.325 -1.2435335 0.55000001
2.325 -1.2430704 0.52500004
2.325 -1.2434161 0.5
2.325 -1.2427216 0.47499999
2.325 -1.2422436 0.45000002
2.325 -1.2414904 0.42500001
2.325 -1.2408057 0.40000001
2.325 -1.3603418 0.40000001
2.325 -1.375 0.41245481
2.3500001 -1.25 0.5891754
2.3500001 -1.2492282 0.57499999
2.3475711 -1.25 0.60000002
2.3500001 -1.2508563 0.60000002
2.325 -1.3845295 0.57499999
2.3500001 -1.3853168 0.60000002
2.325 -1.3848908 0.60000002
2.3500001 -1.3854016 0.57499999
2.3500001 -1.2486312 0.55000001
2.325 -1.3849549 0.55000001
2.3500001 -1.3847849 0.55000001
2.3500001 -1.2477211 0.52500004
2.325 -1.3848566 0.52500004
2.3500001 -1.3852575 0.52500004
2.3500001 -1.2469492 0.5
2.325 -1.3849105 0.5
2.3500001 -1.3838669 0.5
2.3500001 -1.2467822 0.47499999
2.325 -1.3847475 0.47499999
2.3500001 -1.3844734 0.47499999
2.3500001 -1.2451295 0.45000002
2.3500001 -1.2442186 0.42500001
2.3500001 -1.375 0.4035351
2.352864 -1.25 0.57499999
2.375 -1.3855942 0.60000002
2.375 -1.3854563 0.57499999
2.3551283 -1.25 0.55000001
2.375 -1.2568309 0.55000001
2.375 -1.3847196 0.55000001
2.3576634 -1.25 0.52500004
2.375 -1.257025 0.52500004
2.375 -1.3842437 0.52500004
2.3614459 -1.25 0.5
2.375 -1.2555341 0.5
2.375 -1.3846039 0.5
2.3642871 -1.25 0.47499999
2.375 -1.2541732 0.47499999
2.375 -1.3846731 0.47499999
2.3687932 -1.25 0.45000002
2.375 -1.2533548 0.45000002
2.4000001 -1.384149 0.60000002
2.4000001 -1.3837389 0.57499999
2.4000001 -1.3799046 0.55000001
2.4000001 -1.2612888 0.52500004
2.4000001 -1.3785053 0.52500004
2.4000001 -1.2611517 0.5
2.4000001 -1.3839983 0.5
2.4000001 -1.2603383 0.47499999
2.4000001 -1.3839422 0.47499999
2.375 -1.3844606 0.45000002
2.4000001 -1.3836559 0.45000002
2.375 -1.3848398 0.42500001
2.6000001 0.55241191 1.1750001
2.625 0.55262971 1.2
2.625 0.5541867 1.1750001
2.6000001 0.5534814 1.15
2.625 0.55505538 1.15
2.6000001 0.55426794 1.125
2.625 0.5551188 1.125
2.6000001 0.55442774 1.1
2.625 0.55604368 1.1
2.6000001 0.55466217 1.075
2.625 0.55593032 1.075
2.6000001 0.55486476 1.0500001
2.625 0.55528229 1.0500001
2.6000001 0.55287117 1.025
2.625 0.55460876 1.025
2.6000001 0.55314058 1
2.625 0.55478829 1
2.6500001 0.55411577 1.2
2.6500001 0.55585641 1.1750001
2.6500001 0.55655903 1.15
2.6500001 0.55639821 1.125
2.6500001 0.55755609 1.1
2.6500001 0.55744135 1.075
2.6500001 0.55666602 1.0500001
2.6500001 0.55615503 1.025
2.6500001 0.5564813 1
2.675 0.55563551 1.2
2.675 0.55687022 1.1750001
2.675 0.55745459 1.15
2.675 0.55787903 1.125
2.675 0.55880666 1.1
2.675 0.55875683 1.075
2.675 0.55826008 1.0500001
2.675 0.55760473 1.025
2.675 0.55861372 1
2.7 0.55646652 1.2
2.7 0.557863 1.1750001
2.7 0.55940837 1.15
2.7 0.55837458 1.125
2.7 0.55961215 1.1
2.7 0.56023979 1.075
2.7 0.55941856 1.0500001
2.7 0.55959767 1.025
2.7 0.56069767 1
2.7250001 0.55778837 1.2
2.7250001 0.55966043 1.1750001
2.7250001 0.5601961 1.15
2.7250001 0.56071848 1.125
2.7250001 0.56098831 1.1
2.7250001 0.56181675 1.075
2.7250001 0.56113833 1.0500001
2.7250001 0.56136602 1.025
2.7250001 0.56187516 1
2.75 0.55941367 1.2
2.75 0.56067514 1.1750001
2.75 0.56057173 1.15
2.75 0.5619089 1.125
2.75 0.56192565 1.1
2.75 0.56333178 1.075
2.75 0.56328958 1.0500001
2.75 0.56307828 1.025
2.75 0.56281316 1
2.7750001 0.56090862 1.2
2.7750001 0.5615527 1.1750001
2.7750001 0.56209159 1.15
2.7750001 0.56333286 1.125
2.7750001 0.5634858 1.1
2.7750001 0.5644204 1.075
2.7750001 0.56403923 1.0500001
2.7750001 0.56471962 1.025
2.7750001 0.56442469 1
2.8 0.56237984 1.2
2.8 0.56283396 1.1750001
2.8 0.56341416 1.15
2.8 0.56480378 1.125
2.8 0.56563491 1.1
2.8 0.56609988 1.075
2.8 0.5656361 1.0500001
2.8 0.56531805 1.025
2.8 0.56591713 1
1.475 -1.289289 0.60000002
1.6409371 0.60000002 0.60000002
1.6403496 0.57499999 0.57499999
1.639047 0.60000002 0.57499999
1.640572 0.55000001 0.57499999
1.6423426 0.55000001 0.60000002
1.6454366 0.52500004 0.57499999
1.6453962 0.52500004 0.60000002
1.65 0.51881737 0.60000002
1.65 0.51976353 0.57499999
1.6380123 0.57499999 0.55000001
1.6372902 0.60000002 0.55000001
1.638365 0.55000001 0.55000001
1.6440213 0.52500004 0.55000001
1.65 0.51875645 0.55000001
1.6355053 0.57499999 0.52500004
1.6352316 0.60000002 0.52500004
1.6359862 0.55000001 0.52500004
1.6418129 0.52500004 0.52500004
1.65 0.51780164 0.52500004
1.6339298 0.57499999 0.5
1.6336559 0.60000002 0.5
1.6350682 0.55000001 0.5
1.6421086 0.52500004 0.5
1.65 0.51925623 0.5
1.6322392 0.55000001 0.47499999
1.6391643 0.52500004 0.47499999
1.65 0.51689589 0.47499999
1.6415955 0.52500004 0.45000002
1.65 0.51878643 0.45000002
1.65 0.51810014 0.42500001
1.6750001 0.50545996 0.60000002
1.6750001 0.50685644 0.57499999
1.6750001 0.50845021 0.55000001
1.6750001 0.50893617 0.52500004
1.6750001 0.51155847 0.5
1.6750001 0.51074135 0.47499999
1.6750001 0.5128386 0.45000002
1.6750001 0.51288098 0.42500001
1.7 0.50528055 0.60000002
1.7 0.5067181 0.57499999
1.7 0.50795543 0.55000001
1.7 0.50894922 0.52500004
1.7 0.51089829 0.5
1.7 0.51014978 0.47499999
1.7 0.51284879 0.45000002
1.7 0.51194888 0.42500001
1.725 0.50731152 0.60000002
1.725 0.50955385 0.57499999
1.725 0.51063079 0.55000001
1.725 0.51192582 0.52500004
1.725 0.51126689 0.5
1.725 0.51177168 0.47499999
1.725 0.51424569 0.45000002
1.725 0.51441938 0.42500001
1.75 0.51111263 0.60000002
1.75 0.51223439 0.57499999
1.75 0.51380271 0.55000001
1.75 0.51496965 0.52500004
1.75 0.51508039 0.5
1.75 0.51367015 0.47499999
1.75 0.51674825 0.45000002
1.75 0.51606482 0.42500001
1.775 0.51358813 0.60000002
1.775 0.51606923 0.57499999
1.775 0.51750147 0.55000001
1.775 0.5185318 0.52500004
1.775 0.5163368 0.5
1.775 0.51716596 0.47499999
1.775 0.51714289 0.45000002
1.775 0.51867896 0.42500001
1.8000001 0.51725078 0.60000002
1.8000001 0.519234 0.57499999
1.8000001 0.51955718 0.55000001
1.8000001 0.52171057 0.52500004
1.8000001 0.5187614 0.5
1.8000001 0.51992983 0.47499999
1.8000001 0.52115178 0.45000002
3.2 0.59991831 0.57499999
3.201349 0.60000002 0.57499999
3.2 0.59947455 0.60000002
3.2070622 0.60000002 0.60000002
3.2 0.60000002 0.57319969
5 -1.2484946 1.775
5 -1.2983556 1.775
5 -1.2487496 1.75
5 -1.2998434 1.75
5 -1.247803 1.725
