# .PCD v0.7 - Point Cloud Data file format
VERSION 0.7
FIELDS x y z
SIZE 4 4 4
TYPE F F F
COUNT 1 1 1
WIDTH 1716
HEIGHT 1
VIEWPOINT 0 0 0 1 0 0 0
POINTS 1716
DATA ascii
4.1838675 1 0.5
4.2000003 0.94999999 0.50738591
4.2000003 1.15 0.45892903
4.1587477 1.15 0.45000002
4.1993608 1 0.45000002
4.1854186 0.94999999 0.45000002
4.2000003 0.93442327 0.45000002
4.2000003 1.15 0.40475854
4.2000003 1.1 0.44584242
4.2000003 1.058081 0.40000001
4.2000003 0.90000004 0.42485738
4.2000003 0.85000002 0.42086139
4.2000003 0.80000001 0.44598255
4.25 0.9633047 0.5
4.2240252 0.94999999 0.5
4.2351532 0.94999999 0.45000002
4.25 0.95654052 0.45000002
4.25 0.80000001 0.45556316
4.25 0.80495024 0.45000002
4.2196708 0.80000001 0.45000002
4.204123 1.15 0.40000001
4.25 1.1037205 0.40000001
4.25 1.1 0.40592989
4.25 1.0929198 0.40000001
4.25 0.94999999 0.43358159
4.25 0.90000004 0.42387834
4.25 0.85000002 0.42530337
4.3000002 0.95735943 0.5
4.3000002 0.96032137 0.45000002
4.3000002 0.80000001 0.46201071
4.3000002 0.83898062 0.45000002
4.2952404 1.15 0.40000001
4.3000002 1.15 0.40578684
4.3000002 1.1371049 0.40000001
4.2604918 1.1 0.40000001
4.3000002 0.94999999 0.43422467
4.3000002 0.90000004 0.42002392
4.3000002 0.85000002 0.44645116
4.3499999 1.1 0.75937676
4.3499999 1.061148 0.75
4.3499999 1.0666631 0.69999999
4.3499999 1.1 0.683402
4.3499999 1.0500001 0.68146306
4.3499999 1.0648278 0.65000004
4.3499999 1.0321298 0.65000004
4.3499999 1.0667819 0.60000002
4.3499999 1.0288123 0.60000002
4.3499999 1.0500001 0.56874734
4.3499999 0.85000002 0.56270164
4.3499999 0.8709833 0.55000001
4.3499999 0.830136 0.55000001
4.3499999 1.0500001 0.53939122
4.3499999 1.1 0.52751231
4.3499999 1 0.51740706
4.3104668 0.94999999 0.5
4.3499999 0.94999999 0.52242887
4.3499999 0.92286932 0.5
4.3495417 0.85000002 0.5
4.3499999 0.85037768 0.5
4.3499999 0.84969634 0.5
4.3499999 1.1241485 0.45000002
4.3154917 1.15 0.45000002
4.3499999 1.15 0.46740705
4.3499999 0.96293098 0.45000002
4.3499999 0.94999999 0.46474478
4.3113351 0.85000002 0.45000002
4.3499999 0.85774165 0.45000002
4.3499999 0.80000001 0.46610251
4.3000002 1.1644683 0.45000002
4.3499999 1.1970603 0.40000001
4.3499999 1.2 0.40541944
4.3414717 1.2 0.40000001
4.3499999 1.1043503 0.40000001
4.3499999 0.94999999 0.42816463
4.3499999 0.90000004 0.41682878
4.3418498 0.80000001 0.40000001
4.3499999 0.80211127 0.40000001
4.3499999 0.80000001 0.40586993
4.4000001 1.0640361 0.80000001
4.4000001 1.0548688 0.75
4.3841829 1.0500001 0.69999999
4.4000001 1.0500001 0.73000401
4.4000001 1.036996 0.69999999
4.4000001 1.080335 0.65000004
4.4000001 1.1 0.66964573
4.4000001 1.0214171 0.65000004
4.4000001 1.1 0.61178792
4.3933744 1.1 0.60000002
4.4000001 1.0241026 0.60000002
4.4000001 1.1 0.58912939
4.4000001 1.0500001 0.57189816
4.4000001 0.90000004 0.55406123
4.4000001 0.90838426 0.55000001
4.3921819 0.90000004 0.55000001
4.4000001 0.85000002 0.56289881
4.4000001 0.82641041 0.55000001
4.4000001 1.1 0.52911282
4.3499999 1.15 0.52784765
4.4000001 1.15 0.51124078
4.4000001 1.0500001 0.53911155
4.4000001 1 0.51894408
4.4000001 0.94999999 0.52725077
4.3917809 0.90000004 0.5
4.4000001 0.84074467 0.5
4.4000001 1.1616406 0.5
4.4000001 1.15 0.47346464
4.3499999 1.1820166 0.5
4.4000001 1.1400388 0.45000002
4.4000001 0.95533222 0.45000002
4.4000001 0.94999999 0.45416012
4.4000001 0.90000004 0.49423346
4.4000001 0.86884671 0.45000002
4.4000001 0.80000001 0.48818794
4.4000001 1.2 0.40269017
4.4000001 1.1993194 0.40000001
4.3734369 1.1 0.40000001
4.4000001 1.1 0.4077777
4.4000001 1.0883201 0.40000001
4.4000001 0.94999999 0.44424325
4.4000001 0.90000004 0.42472607
4.353754 0.80000001 0.40000001
4.4646525 1.0500001 0.80000001
4.5 1.0313849 0.80000001
4.5 1.0500001 0.83396977
4.5500002 1.0458814 0.85000002
4.5500002 1.0265392 0.80000001
4.5999999 1.0153916 0.80000001
4.6500001 1.0186286 0.85000002
4.6500001 1.0127541 0.80000001
4.7000003 1.0036814 0.85000002
4.7000003 1.0023466 0.80000001
4.7478805 1.0500001 0.90000004
4.75 1.0500001 0.90206003
4.7000003 1.0500001 0.85967857
4.75 0.80000001 0.85977048
4.75 0.80470926 0.85000002
4.7212796 0.80000001 0.85000002
4.75 1.0143112 0.80000001
4.75 1 0.83660853
4.7186618 1 0.85000002
4.75 0.98751783 0.85000002
4.75 0.80000001 0.84290165
4.8000002 1.0611776 0.90000004
4.8000002 1.1 0.91526568
4.7649384 1.0500001 0.90000004
4.8000002 1.0500001 0.88562626
4.75 1.046737 0.90000004
4.75 1 0.85240519
4.8000002 1 0.85674971
4.8000002 0.98544466 0.85000002
4.7569504 0.80000001 0.85000002
4.8000002 1.0050638 0.80000001
4.8000002 1 0.81122226
5.2146168 -1.35 0.34999999
5.2000003 -1.3471073 0.34999999
5.2000003 -1.35 0.35324556
5.25 -1.3478812 0.40000001
5.25 -1.35 0.38716373
5.2472572 -1.35 0.40000001
5.25 -1.351653 0.40000001
5.2000003 -1.3510193 0.34999999
5.2183089 -1.35 0.30000001
5.2000003 -1.3410691 0.30000001
5.2000003 -1.3563099 0.30000001
5.210309 -1.35 0.25
5.2000003 -1.3452677 0.25
5.2000003 -1.358312 0.25
5.2557406 -1.35 0.40000001
4.8149848 1.2 0.75
4.8000002 1.2 0.77084827
4.8000002 1.175454 0.75
4.8335652 1.2 0.80000001
4.8000002 1.15 0.76017582
4.8000002 1.1871874 0.80000001
4.8499999 1.2 0.78866976
4.8499999 1.15 0.76148933
4.8000002 1.1242816 0.75
4.8499999 1.1273875 0.75
4.8499999 1 0.76652628
4.8499999 1.022899 0.80000001
4.8000002 1.0050638 0.80000001
4.8000002 1 0.78976542
4.8499999 0.94999999 0.77217525
4.8000002 0.94999999 0.76347965
4.8499999 0.90000004 0.75746387
4.8000002 0.90000004 0.76125729
4.8499999 0.85000002 0.75157088
4.8000002 0.85000002 0.75831759
4.8499999 0.81568336 0.75
4.8336048 0.80000001 0.75
4.8000002 0.80000001 0.75207561
4.8499999 1.2 0.70886773
4.8000002 1.15 0.7202602
4.8499999 1.15 0.72760487
4.8000002 1.1327389 0.69999999
4.8499999 1.1247348 0.69999999
4.8499999 1.1 0.72495431
4.8000002 1.1 0.72889042
4.8000002 1.0776381 0.69999999
4.8499999 1.0760951 0.69999999
4.8499999 0.80000001 0.74869019
4.8499999 1.15 0.65135163
4.8462715 1.15 0.65000004
4.834085 1.2 0.65000004
4.8499999 1.2 0.66302627
4.8000002 1.1 0.68255585
4.8499999 1.1 0.6816923
4.8499999 1.1491935 0.65000004
4.8499999 1.2 0.63638067
4.8499999 1.15 0.64680457
4.8000002 1.0114535 0.60000002
4.8471546 1 0.60000002
4.8000002 1 0.62076539
4.8000002 0.96490604 0.60000002
4.8499999 1.1136961 0.55000001
4.8499999 1.1 0.56842196
4.8000002 1.1 0.57565022
4.8000002 1.1240107 0.55000001
4.8000002 1.068302 0.55000001
4.8499999 1.0795082 0.55000001
4.8000002 1 0.55474192
4.8190274 1 0.55000001
4.8499999 1.0059083 0.55000001
4.8499999 1 0.58693331
4.8000002 0.99670202 0.55000001
4.8000002 0.94999999 0.5888719
4.8499999 0.94999999 0.57790375
4.8499999 0.90000004 0.57844347
4.8000002 0.90000004 0.57653111
4.8499999 0.85000002 0.56314695
4.8000002 0.85000002 0.58542866
4.8000002 0.83923513 0.55000001
4.8499999 0.84345305 0.55000001
4.8000002 1.1617497 0.5
4.8000002 1.2 0.53179741
4.8499999 1.2 0.52944648
4.8499999 1.1700314 0.5
4.8000002 1.1224045 0.5
4.8499999 1.1140336 0.5
4.8000002 1.0769047 0.5
4.8499999 1.0895706 0.5
4.8000002 1 0.54821378
4.8000002 1.0413941 0.5
4.8499999 1.0427102 0.5
4.8000002 0.82813519 0.5
4.8499999 0.81188643 0.5
4.8000002 1.15 0.4935053
4.8499999 1.15 0.49695727
4.8408027 1.2 0.45000002
4.8499999 1.1933413 0.45000002
4.8499999 1.2 0.48065624
4.8499999 1.0500001 0.48269677
4.8000002 1.0500001 0.49003768
4.8499999 0.80000001 0.47735968
4.8000002 0.80000001 0.47325683
4.8499999 1.2 0.41465184
4.8499999 1.15 0.40653554
4.8468938 1.2 0.40000001
4.8000002 1.2 0.42925754
4.8000002 1.15 0.40546545
4.8499999 1.1851243 0.40000001
4.8499999 1.1 0.40429947
4.8000002 1.1 0.40504405
4.8499999 1.0500001 0.43085119
4.8000002 1.0500001 0.4188644
4.8105488 1 0.40000001
4.8499999 1 0.40548775
4.8000002 1.0045897 0.40000001
4.8000002 0.98988217 0.40000001
4.8000002 0.94999999 0.4072167
4.8499999 0.94999999 0.40110227
4.8499999 0.94391233 0.40000001
4.8004603 0.90000004 0.40000001
4.8000002 0.90000004 0.40013
4.8000002 0.89984113 0.40000001
4.8499999 0.80000001 0.41143695
4.8499999 0.80335838 0.40000001
4.828671 0.80000001 0.40000001
4.8919845 1.2 0.75
4.9000001 1.1814796 0.75
4.9000001 1.15 0.77362388
4.9000001 1.1015733 0.75
4.9000001 1.099172 0.75
4.9000001 1.0500001 0.79296052
4.8687758 1.0500001 0.75
4.8739104 1 0.75
4.9000001 1.0427418 0.80000001
4.9000001 0.95185822 0.75
4.9000001 0.94999999 0.75055093
4.9000001 0.94801867 0.75
4.869226 0.90000004 0.75
4.8560209 0.85000002 0.75
4.9000001 1.15 0.72561681
4.9000001 1.1284971 0.69999999
4.9000001 1.1 0.74885988
4.9000001 1.0772713 0.69999999
4.9000001 1.0500001 0.7232036
4.9000001 1 0.73534274
4.9000001 0.90000004 0.73716897
4.9000001 0.85000002 0.7366125
4.9000001 0.80000001 0.73313588
4.8663192 1.2 0.65000004
4.9000001 1.1705464 0.65000004
4.9000001 1.15 0.66214341
4.9000001 1.1 0.67767859
4.9000001 1.1418341 0.65000004
4.9000001 1.15 0.64263314
4.9000001 1.1109494 0.55000001
4.9000001 1.1 0.55558246
4.9000001 1.0637584 0.55000001
4.8809676 1 0.55000001
4.9000001 0.994335 0.55000001
4.9000001 0.94999999 0.56536531
4.9000001 0.85000002 0.56586498
4.9000001 0.81812012 0.55000001
4.9000001 1.15 0.52493966
4.8649421 1.15 0.5
4.9000001 1.2 0.51574498
4.9000001 1.1159093 0.5
4.8631358 1.1 0.5
4.9000001 1.1 0.53117722
4.9000001 1.0627208 0.5
4.889924 1.0500001 0.5
4.9000001 1.0500001 0.52991009
4.9000001 1 0.54782218
4.867744 0.80000001 0.5
4.9000001 0.80000001 0.54073542
4.8565822 1.2 0.45000002
4.9000001 1.1 0.49662516
4.8862281 1.15 0.40000001
4.9000001 1.1330045 0.40000001
4.9000001 1.1 0.40508604
4.9000001 1.0500001 0.43490171
4.9000001 1 0.41232005
4.9000001 0.94999999 0.40097687
4.9000001 0.94622868 0.40000001
4.9000001 0.80000001 0.44295883
4.9000001 0.8124283 0.40000001
4.9500003 1.1915233 0.75
4.9500003 1.15 0.78583992
4.9500003 1.1009355 0.75
4.9500003 1.0548093 0.80000001
4.9235225 1.0500001 0.80000001
4.9500003 1.0992879 0.75
4.9500003 1.0009893 0.75
4.947031 1 0.75
4.9500003 1 0.75118619
4.9081016 0.94999999 0.75
4.9500003 0.98798668 0.75
4.9500003 1.15 0.71927458
4.9253278 1.1 0.69999999
4.9500003 1.0500001 0.72473496
4.9500003 0.94999999 0.74683326
4.9500003 0.80000001 0.72863191
4.9202924 1.2 0.65000004
4.9500003 1.2 0.66266191
4.9500003 1.15 0.67527163
4.9500003 1.13004 0.65000004
4.9500003 1.2 0.61241543
4.9500003 1.15 0.63255423
4.9074726 1.1 0.55000001
4.9500003 1.0108441 0.55000001
4.9500003 1 0.55117387
4.9340224 1 0.55000001
4.9500003 0.85000002 0.57507658
4.9500003 0.81248045 0.55000001
4.9500003 1.15 0.50982815
4.9500003 1.2 0.53860343
4.9500003 1.1450756 0.5
4.9500003 1.0500001 0.54158384
4.9500003 1.0657895 0.5
4.9500003 0.80000001 0.53963321
4.9500003 1.1 0.47614241
4.9500003 1.1 0.41640639
4.9500003 1.1267289 0.40000001
4.9500003 1.0500001 0.40545002
4.9500003 1 0.41326767
4.9500003 0.96800452 0.40000001
4.9094439 0.94999999 0.40000001
4.9500003 0.80000001 0.42108926
4.9500003 0.80510819 0.40000001
5 1.1844095 0.75
5 1.15 0.77876103
5 1.1 0.76780385
4.9508662 1.1 0.75
5 1.0503422 0.75
4.9997191 1.0500001 0.75
5 1.0500001 0.75077081
5 1.0597873 0.80000001
5 1 0.75124949
5 0.99890947 0.75
5 1.15 0.72106326
5 1.1 0.71519059
5 0.80000001 0.72378451
5 1.15 0.68804783
5 1.2 0.6713016
5 1.1162509 0.65000004
5 1.1643895 0.60000002
5 1.2 0.63716006
4.9826398 1.15 0.60000002
5 1.1202836 0.60000002
5 1.15 0.55278605
4.9589782 1 0.55000001
5 0.99483365 0.55000001
5 0.94999999 0.57212853
5 0.90000004 0.56553572
5 0.85000002 0.57076401
5 0.83465958 0.55000001
5 1.15 0.54581439
5 1.2 0.54762834
5 1.1356573 0.5
5 1.0686942 0.5
5 1.0500001 0.52559251
5 1 0.54392296
5 0.80000001 0.52910799
4.9846563 1.1 0.45000002
5 1.1055193 0.45000002
5 1.0865419 0.45000002
5 1.133592 0.40000001
5 1.0633529 0.40000001
4.9657722 1.0500001 0.40000001
4.98454 1 0.40000001
5 0.80000001 0.42450809
5 0.80897772 0.40000001
5.0500002 1.1792629 0.75
5.0500002 1.15 0.78733045
5.0500002 1.1 0.77106977
5.0500002 1.0554141 0.80000001
5.000423 1.0500001 0.75
5.0007114 1 0.75
5.0500002 1.15 0.72573012
5.0500002 1.1 0.71521395
5.0500002 1.0500001 0.72255385
5.0500002 1 0.72154218
5.0500002 0.80000001 0.71747255
5.0500002 1.2 0.67744011
5.0500002 1.1756757 0.65000004
5.0318065 1.15 0.65000004
5.0500002 1.0890588 0.65000004
5.0500002 1.0500001 0.67742676
5.0500002 1.015023 0.65000004
5.0399141 1.15 0.60000002
5.0500002 1.1550477 0.60000002
5.0261874 1.2 0.60000002
5.0500002 1.0500001 0.62161845
5.0080028 1.2 0.55000001
5.0500002 1.1737 0.55000001
5.0500002 1.0006979 0.55000001
5.0500002 1 0.55453944
5.045589 1 0.55000001
5.0500002 0.94999999 0.58874124
5.0500002 0.90691501 0.55000001
5.037231 0.90000004 0.55000001
5.0500002 0.86609393 0.55000001
5.0500002 0.85000002 0.55640364
5.0500002 0.80000001 0.57359207
5.0345535 0.80000001 0.55000001
5.0500002 1.1935281 0.5
5.0302906 1.15 0.5
5.0381522 1.0500001 0.5
5.0500002 1.0409719 0.5
5.0500002 0.90000004 0.54184163
5.0500002 0.88330489 0.5
5.0111785 0.85000002 0.5
5.0500002 0.85000002 0.54778314
5.0500002 0.82139236 0.5
5.0500002 1.15 0.49554124
5.0500002 1.1 0.46450263
5.0340233 1.1 0.45000002
5.0500002 1.0500001 0.48206887
5.0124125 0.85000002 0.45000002
5.0500002 0.85380697 0.45000002
5.0500002 0.83549851 0.45000002
5.0500002 1.1 0.42985484
5.0500002 1.1262087 0.40000001
5.0500002 1.0500001 0.40725514
5.0417056 1.0500001 0.40000001
5.0500002 1.0458802 0.40000001
5.0436144 0.85000002 0.40000001
5.0500002 0.86472338 0.40000001
5.0500002 0.80000001 0.40782341
5.0999999 1.15 0.75280815
5.0526285 1.2 0.80000001
5.0770936 1.2 0.75
5.0999999 1.1698915 0.80000001
5.0999999 1.1 0.78551507
5.0999999 1.0574123 0.80000001
5.0999999 1.2 0.72569603
5.0999999 1.15 0.73982525
5.0999999 1.1 0.70862132
5.0999999 1.0500001 0.71104002
5.0999999 1 0.7050125
5.0999999 0.94999999 0.70424813
5.0999999 0.80000001 0.71373975
5.0999999 1.2 0.67160749
5.0999999 1.1911862 0.65000004
5.0999999 1.089726 0.65000004
5.0999999 1.0500001 0.68884647
5.0999999 1 0.65656537
5.0955577 1 0.65000004
5.0999999 0.9978143 0.65000004
5.0777946 1.15 0.60000002
5.0999999 1.15 0.60444719
5.0999999 1.1424676 0.60000002
5.0951419 1.0500001 0.60000002
5.0999999 1.0544927 0.60000002
5.0781503 1 0.60000002
5.0999999 0.96848053 0.60000002
5.0999999 1.15 0.58873361
5.0999999 1.1928843 0.55000001
5.0999999 1.0500001 0.59293962
5.0999999 1.0185738 0.55000001
5.0999999 0.94999999 0.59789604
5.0999999 0.90000004 0.56823581
5.0804262 0.90000004 0.55000001
5.0999999 0.85792583 0.55000001
5.0898309 0.85000002 0.55000001
5.0999999 0.84910196 0.55000001
5.0999999 0.80000001 0.58027363
5.0999999 1.2 0.54819971
5.0509934 1.2 0.5
5.0999999 1.118436 0.5
5.0999999 1.1 0.51893705
5.0810876 1.1 0.5
5.0999999 1.0500001 0.51396465
5.0764642 1.0500001 0.5
5.0999999 0.88601685 0.5
5.0999999 0.82769221 0.5
5.0999999 1.2 0.47962794
5.0999999 1.15 0.49180928
5.0697589 0.85000002 0.45000002
5.0999999 0.85000002 0.46167374
5.0656891 1.1 0.40000001
5.0999999 1.062138 0.40000001
5.0999999 1.0500001 0.42512533
5.0999999 1.0397642 0.40000001
5.0999999 0.85000002 0.42357922
5.0999999 0.8594799 0.40000001
5.0999999 0.83202744 0.40000001
5.0578609 0.80000001 0.40000001
5.1477113 1.2 0.80000001
5.1468549 1.2 0.75
5.1500001 1.15 0.75883591
5.1500001 1.1977215 0.75
5.1500001 1.1 0.75727981
5.1381726 1.0500001 0.75
5.1230435 1.0500001 0.80000001
5.1500001 1.0905367 0.75
5.1500001 1.0393742 0.80000001
5.1500001 1.0185119 0.75
5.1500001 0.94999999 0.75826043
5.1500001 0.98367834 0.75
5.1406779 0.94999999 0.75
5.1392856 0.90000004 0.75
5.1500001 0.90000004 0.75736141
5.1474528 0.85000002 0.75
5.1500001 0.85000002 0.75158966
5.1500001 0.84544593 0.75
5.1500001 1.15 0.7304306
5.1500001 1.1 0.71828812
5.1500001 1 0.72623032
5.1500001 0.80000001 0.73052543
5.1071882 1.2 0.65000004
5.1349125 1.0500001 0.65000004
5.1017394 1 0.65000004
5.1500001 1.2 0.61596638
5.1500001 1.1529413 0.60000002
5.1361575 1.15 0.60000002
5.1500001 1.0772153 0.60000002
5.1500001 1.0500001 0.62537932
5.1500001 1 0.6105969
5.1500001 0.94999999 0.64347297
5.1053567 0.94999999 0.60000002
5.1500001 0.94023985 0.60000002
5.1500001 1.15 0.59484071
5.1254096 1.15 0.55000001
5.1195135 1.2 0.55000001
5.1500001 1.1894366 0.55000001
5.1500001 1.2 0.5563513
5.1500001 1.1331996 0.55000001
5.1500001 1.0500001 0.56861252
5.1500001 1.0249795 0.55000001
5.1500001 0.91786301 0.55000001
5.1377616 0.90000004 0.55000001
5.1500001 0.89735717 0.55000001
5.1500001 0.85000002 0.587264
5.1015711 0.85000002 0.55000001
5.1500001 0.80000001 0.58032966
5.1500001 1.15 0.53267425
5.1335697 1.1 0.5
5.1500001 1.0861356 0.5
5.1500001 1.0500001 0.52576351
5.1346083 0.90000004 0.5
5.1500001 0.90711576 0.5
5.1500001 0.85000002 0.53419012
5.1500001 0.82555532 0.5
5.1500001 1.15 0.47503152
5.1500001 1.2 0.47330132
5.1500001 1.1 0.48808947
5.1328921 0.90000004 0.45000002
5.1500001 0.91185677 0.45000002
5.1500001 0.85000002 0.47228104
5.1500001 0.87485343 0.45000002
5.1500001 1.15 0.40765151
5.1500001 1.1554284 0.40000001
5.1351676 1.15 0.40000001
5.1500001 1.1399437 0.40000001
5.1179028 1.0500001 0.40000001
5.1500001 0.90000004 0.42339572
5.1500001 0.86169595 0.40000001
5.1500001 0.85000002 0.41068211
5.1500001 0.83708936 0.40000001
5.1552577 1.2 0.75
5.2000003 1.2 0.76471329
5.2000003 1.15 0.77418131
5.1582189 1.1 0.80000001
5.2000003 1.1354115 0.80000001
5.1704731 1.0500001 0.75
5.1673603 1.0500001 0.80000001
5.2000003 1 0.76213014
5.2000003 1.0145789 0.75
5.1748791 1 0.75
5.2000003 0.94999999 0.76114362
5.2000003 0.90228909 0.75
5.1960535 0.90000004 0.75
5.2000003 0.89570922 0.75
5.2000003 0.85000002 0.75718522
5.2000003 0.81392938 0.75
5.2000003 1.2 0.7341786
5.2000003 1.15 0.71939939
5.2000003 1.1 0.732804
5.2000003 1.0500001 0.71825022
5.2000003 0.90000004 0.74742311
5.2000003 0.80000001 0.74332047
5.2000003 1.1067268 0.65000004
5.2000003 1.1 0.68168372
5.159667 1.1 0.65000004
5.2000003 1.0665219 0.65000004
5.2000003 0.99064475 0.65000004
5.2000003 0.94999999 0.69864589
5.1535482 0.94999999 0.65000004
5.2000003 0.90319318 0.65000004
5.2000003 1.15 0.60071009
5.1789951 1.15 0.60000002
5.2000003 1.2 0.60895157
5.1802554 1.1 0.60000002
5.2000003 1.0500001 0.62940878
5.2000003 1.0006121 0.60000002
5.1993918 1 0.60000002
5.2000003 0.99979496 0.60000002
5.2000003 0.93373787 0.60000002
5.2000003 0.80445194 0.60000002
5.2000003 0.80000001 0.60830027
5.1902423 0.80000001 0.60000002
5.2000003 1.1593672 0.55000001
5.2000003 1.2 0.57669175
5.2000003 1.1 0.56557286
5.2000003 1.1256746 0.55000001
5.2000003 1.0852134 0.55000001
5.1750941 1.0500001 0.55000001
5.2000003 1 0.59958643
5.1548848 0.90000004 0.55000001
5.2000003 0.90000004 0.55701631
5.2000003 0.89456624 0.55000001
5.1595654 0.85000002 0.55000001
5.2000003 0.8094039 0.55000001
5.1858478 1.2 0.5
5.2000003 1.15 0.54199934
5.2000003 1.1741933 0.5
5.2000003 1.2 0.52817458
5.2000003 1.0983344 0.5
5.2000003 0.90000004 0.5289492
5.2000003 0.92007792 0.5
5.1763663 0.85000002 0.5
5.2000003 0.88661271 0.5
5.2000003 0.85000002 0.51571977
5.2000003 1.15 0.48456612
5.2000003 1.1 0.49747139
5.1730742 0.90000004 0.45000002
5.2000003 0.90000004 0.48716506
5.2000003 1.15 0.40532121
5.2000003 1.1571635 0.40000001
5.2000003 1.1419207 0.40000001
5.2000003 0.85000002 0.42577597
5.2000003 0.87656957 0.40000001
5.2000003 0.83559573 0.40000001
4.4500003 0.69999999 0.58844346
4.4500003 0.72460824 0.55000001
4.4397111 0.69999999 0.55000001
4.4500003 0.69296664 0.55000001
4.4112582 0.80000001 0.5
4.4500003 0.7787689 0.5
4.4500003 0.80000001 0.54184669
4.4500003 0.69999999 0.54012442
4.4500003 0.75 0.45192224
4.4000001 0.80000001 0.48818794
4.4000001 0.75 0.46302357
4.4500003 0.69999999 0.46617928
4.4000001 0.69999999 0.46428782
4.4000001 0.67965686 0.45000002
4.4500003 0.68194616 0.45000002
4.4000001 0.66620445 0.40000001
4.4500003 0.66670191 0.40000001
4.5 0.69999999 0.65393275
4.5 0.70468754 0.65000004
4.4966526 0.69999999 0.65000004
4.5 0.69802725 0.65000004
4.4530287 0.69999999 0.60000002
4.5 0.73165196 0.60000002
4.5 0.68065691 0.60000002
4.5 0.72777343 0.55000001
4.5 0.69103384 0.55000001
4.5 0.80000001 0.54593509
4.5 0.75161946 0.5
4.5 0.69999999 0.52331066
4.5 0.75 0.49072108
4.5 0.69999999 0.47928366
4.5 0.65906072 0.40000001
4.5500002 0.75 0.67787796
4.5500002 0.79535985 0.65000004
4.5304999 0.75 0.65000004
4.5500002 0.69999999 0.67260379
4.5500002 0.68578398 0.65000004
4.5500002 0.80000001 0.62050074
4.5480151 0.80000001 0.60000002
4.5432467 0.75 0.60000002
4.5500002 0.66991985 0.60000002
4.5500002 0.75377655 0.55000001
4.5452585 0.75 0.55000001
4.5500002 0.80000001 0.59791058
4.5500002 0.69104308 0.55000001
4.5500002 0.80000001 0.53628105
4.5500002 0.77851051 0.5
4.5500002 0.75 0.54886222
4.5500002 0.69999999 0.523866
4.5500002 0.75 0.46540856
4.5500002 0.69999999 0.47880197
4.5500002 0.77437896 0.40000001
4.5033116 0.80000001 0.40000001
4.5500002 0.80000001 0.42515069
4.5873504 0.75 0.69999999
4.5999999 0.75 0.70394564
4.5674033 0.80000001 0.69999999
4.5999999 0.80000001 0.70421594
4.5890212 0.69999999 0.69999999
4.5999999 0.69999999 0.70905197
4.5999999 0.69001609 0.69999999
4.5738082 0.80000001 0.65000004
4.5999999 0.68066931 0.65000004
4.5999999 0.80000001 0.64734054
4.5999999 0.76613754 0.60000002
4.5517135 0.80000001 0.60000002
4.5999999 0.67154372 0.60000002
4.5999999 0.77076519 0.55000001
4.5999999 0.71163523 0.55000001
4.5999999 0.69999999 0.56812507
4.5875921 0.69999999 0.55000001
4.5999999 0.76658481 0.5
4.5999999 0.80000001 0.53381997
4.5999999 0.75 0.5296796
4.5999999 0.75 0.47513244
4.5999999 0.69999999 0.46836066
4.5999999 0.68197745 0.45000002
4.5999999 0.80000001 0.4254024
4.5999999 0.77049464 0.40000001
4.5999999 0.65901566 0.40000001
4.6139884 0.75 0.69999999
4.6075225 0.80000001 0.69999999
4.6500001 0.72349781 0.69999999
4.6500001 0.69999999 0.71906734
4.6500001 0.66817212 0.69999999
4.6500001 0.80000001 0.66387987
4.6500001 0.75 0.68897438
4.6500001 0.67340082 0.65000004
4.6500001 0.80000001 0.62809324
4.6500001 0.78661603 0.60000002
4.6360679 0.65000004 0.60000002
4.6500001 0.65000004 0.61058193
4.6500001 0.64782041 0.60000002
4.6500001 0.75675887 0.55000001
4.6500001 0.73933101 0.55000001
4.6500001 0.69999999 0.59477824
4.6500001 0.65000004 0.59785908
4.6500001 0.77216786 0.5
4.6500001 0.80000001 0.5268203
4.6500001 0.75 0.54274935
4.6500001 0.75 0.46935567
4.6500001 0.69999999 0.45228392
4.6500001 0.69818026 0.45000002
4.6500001 0.80000001 0.43437463
4.6500001 0.77392983 0.40000001
4.6500001 0.67715454 0.40000001
4.7000003 0.75 0.71654427
4.7000003 0.76417702 0.69999999
4.6752901 0.75 0.69999999
4.7000003 0.69999999 0.73523772
4.681066 0.65000004 0.69999999
4.7000003 0.65000004 0.70458287
4.7000003 0.64800131 0.69999999
4.7000003 0.80000001 0.67519248
4.7000003 0.66445988 0.65000004
4.7000003 0.65000004 0.6878131
4.7000003 0.80000001 0.62429315
4.7000003 0.77686954 0.60000002
4.7000003 0.65000004 0.61055303
4.7000003 0.6487689 0.60000002
4.6901507 0.75 0.55000001
4.7000003 0.75 0.55348629
4.7000003 0.69999999 0.58057225
4.7000003 0.65000004 0.5987832
4.7000003 0.76819152 0.5
4.7000003 0.80000001 0.5410313
4.7000003 0.75 0.46799245
4.7000003 0.70361555 0.45000002
4.679328 0.69999999 0.45000002
4.7000003 0.80000001 0.4456329
4.7000003 0.77142131 0.40000001
4.6993141 0.69999999 0.40000001
4.7000003 0.7003606 0.40000001
4.7446523 0.80000001 0.75
4.75 0.79735518 0.75
4.75 0.80000001 0.7506966
4.75 0.69999999 0.77441752
4.75 0.71660417 0.75
4.7241874 0.69999999 0.75
4.75 0.67530745 0.75
4.7355585 0.75 0.69999999
4.75 0.80000001 0.74692333
4.75 0.74490911 0.69999999
4.75 0.65000004 0.73086917
4.75 0.63917667 0.69999999
4.75 0.75 0.69590765
4.75 0.80000001 0.68475592
4.7304797 0.65000004 0.65000004
4.75 0.64715779 0.65000004
4.75 0.80000001 0.61078686
4.75 0.78573269 0.60000002
4.75 0.64526641 0.60000002
4.7279911 0.80000001 0.55000001
4.7060614 0.75 0.55000001
4.75 0.80000001 0.57993293
4.75 0.73862505 0.55000001
4.75 0.69999999 0.58784491
4.75 0.65000004 0.59380966
4.75 0.75 0.53959674
4.75 0.7756049 0.5
4.7342753 0.75 0.45000002
4.7070765 0.80000001 0.45000002
4.75 0.80000001 0.47653994
4.75 0.75 0.43913397
4.75 0.78593618 0.40000001
4.75 0.72044176 0.40000001
4.8000002 0.80000001 0.75207561
4.8000002 0.79375994 0.75
4.8000002 0.69999999 0.78970271
4.8000002 0.72793776 0.75
4.8000002 0.65203917 0.75
4.8000002 0.75 0.73452801
4.7631354 0.80000001 0.69999999
4.7541413 0.75 0.69999999
4.8000002 0.65000004 0.7464444
4.8000002 0.6307466 0.69999999
4.8000002 0.64250463 0.65000004
4.7633371 0.80000001 0.60000002
4.8000002 0.73634887 0.60000002
4.8000002 0.69999999 0.64613038
4.7673197 0.69999999 0.60000002
4.8000002 0.66349095 0.60000002
4.8000002 0.64599484 0.60000002
4.7913518 0.75 0.55000001
4.8000002 0.75253862 0.55000001
4.8000002 0.75 0.56064868
4.8000002 0.65000004 0.59545124
4.8000002 0.77767152 0.5
4.8000002 0.80000001 0.47325683
4.8000002 0.75 0.41678095
4.8000002 0.77970356 0.40000001
4.8000002 0.73259676 0.40000001
5.2000003 1.2 0.76471329
5.25 1.15 0.76264638
5.2000003 1.15 0.77418131
5.25 1.2 0.75167322
5.2000003 1.1354115 0.80000001
5.25 1.1320934 0.80000001
5.25 1.0502287 0.80000001
5.25 1.0500001 0.79919285
5.2481141 1.0500001 0.80000001
5.2423453 1 0.75
5.2000003 1.0145789 0.75
5.2000003 1 0.76213014
5.25 1.0496998 0.80000001
5.25 0.99645722 0.75
5.25 0.94999999 0.76153404
5.2000003 0.94999999 0.76114362
5.2054486 0.90000004 0.75
5.25 0.90000004 0.75682211
5.2000003 0.90228909 0.75
5.2000003 0.89570922 0.75
5.2000003 0.85000002 0.75718522
5.22402 0.85000002 0.75
5.25 0.87924498 0.75
5.2000003 0.81392938 0.75
5.25 0.80000001 0.75306469
5.25 0.81153452 0.75
5.2271762 0.80000001 0.75
5.25 1.15 0.72519821
5.2000003 1.2 0.7341786
5.2000003 1.15 0.71939939
5.25 1.2 0.74627793
5.25 1.1020244 0.69999999
5.2457643 1.1 0.69999999
5.2000003 1.1 0.732804
5.25 1.098304 0.69999999
5.25 1.0500001 0.72258371
5.2000003 1.0500001 0.71825022
5.25 1 0.73853463
5.2000003 0.90000004 0.74742311
5.25 0.85000002 0.73656625
5.2000003 0.80000001 0.74332047
5.2000003 1.1 0.68168372
5.2000003 1.1067268 0.65000004
5.25 1.1299198 0.65000004
5.25 1.0500001 0.65307868
5.2415762 1.0500001 0.65000004
5.2000003 1.0665219 0.65000004
5.25 1 0.67729187
5.2241912 1 0.65000004
5.2000003 0.94999999 0.69864589
5.2000003 0.99064475 0.65000004
5.25 0.94999999 0.66661328
5.2000003 0.90319318 0.65000004
5.25 0.90411943 0.65000004
5.2000003 1.2 0.60895157
5.25 1.15 0.60607487
5.2000003 1.15 0.60071009
5.25 1.2 0.60667509
5.2000003 1.0500001 0.62940878
5.2000003 1.0006121 0.60000002
5.2005267 1 0.60000002
5.2000003 0.99979496 0.60000002
5.2451558 0.90000004 0.60000002
5.2000003 0.93373787 0.60000002
5.25 0.90000004 0.64654303
5.25 0.87545758 0.60000002
5.25 0.80440903 0.60000002
5.25 0.80000001 0.60114086
5.2000003 0.80000001 0.60830027
5.2000003 0.80445194 0.60000002
5.2498107 1.2 0.55000001
5.2000003 1.2 0.57669175
5.2000003 1.1593672 0.55000001
5.25 1.15 0.59346968
5.25 1.1997943 0.55000001
5.2100024 1.15 0.55000001
5.2000003 1.1256746 0.55000001
5.2000003 1.1 0.56557286
5.2144446 1.1 0.55000001
5.25 1.1196913 0.55000001
5.2000003 1.0852134 0.55000001
5.2000003 1 0.59958643
5.2000003 0.90000004 0.55701631
5.2000003 0.89456624 0.55000001
5.25 0.88470411 0.55000001
5.2000003 0.8094039 0.55000001
5.25 0.81876898 0.55000001
5.2000003 1.2 0.52817458
5.2105274 1.15 0.5
5.2000003 1.1741933 0.5
5.2000003 1.15 0.54199934
5.25 1.15 0.54155701
5.201951 1.1 0.5
5.2000003 1.0983344 0.5
5.25 0.90000004 0.51760823
5.25 0.93503743 0.5
5.2000003 0.90000004 0.5289492
5.2000003 0.92007792 0.5
5.2000003 0.88661271 0.5
5.25 0.87722152 0.5
5.25 0.85000002 0.51112956
5.2000003 0.85000002 0.51571977
5.2000003 1.15 0.48456612
5.2000003 1.1 0.49747139
5.25 0.90000004 0.48473594
5.2000003 0.90000004 0.48716506
5.2062454 1.15 0.40000001
5.2000003 1.1571635 0.40000001
5.2000003 1.15 0.40532121
5.2000003 1.1419207 0.40000001
5.25 0.85000002 0.40641919
5.25 0.87197125 0.40000001
5.2000003 0.85000002 0.42577597
5.2000003 0.87656957 0.40000001
5.2000003 0.83559573 0.40000001
5.25 0.84490502 0.40000001
5.3000002 1.15 0.77932221
5.3000002 1.1531155 0.75
5.2840228 1.15 0.75
5.3000002 1.2 0.78286898
5.2949595 1.15 0.80000001
5.3000002 1.1541246 0.80000001
5.3000002 1.1112697 0.75
5.3000002 1.0573504 0.80000001
5.3000002 1.0500001 0.78468937
5.3000002 1.040526 0.80000001
5.2555137 1 0.75
5.3000002 1 0.75839126
5.3000002 1.0137877 0.75
5.2691751 0.85000002 0.75
5.3000002 0.85000002 0.76527399
5.3000002 0.80000001 0.75930953
5.3000002 1.1901135 0.69999999
5.2878666 1.2 0.69999999
5.2562633 1.1 0.69999999
5.3000002 1.1 0.73433059
5.3000002 1.0500001 0.71969903
5.3000002 1.2 0.69238085
5.2969794 1.1 0.65000004
5.3000002 1.0500001 0.65484267
5.3000002 1.0767059 0.65000004
5.3000002 1 0.65157819
5.3000002 0.94999999 0.66299671
5.3000002 0.90000004 0.68064803
5.2516437 0.90000004 0.65000004
5.3000002 0.88505059 0.65000004
5.3000002 1.2 0.62136596
5.3000002 1.1660271 0.60000002
5.2633228 1.15 0.60000002
5.3000002 1.1409324 0.60000002
5.3000002 1.1 0.64735979
5.3000002 1 0.64670628
5.3000002 1.0089355 0.60000002
5.2852025 1 0.60000002
5.3000002 0.98878813 0.60000002
5.3000002 0.85000002 0.61922514
5.2622375 0.85000002 0.60000002
5.3000002 0.80000001 0.61152488
5.280839 1.15 0.55000001
5.3000002 1.15 0.5800187
5.3000002 1 0.58560967
5.2870131 0.85000002 0.55000001
5.3000002 0.94999999 0.53610915
5.25353 0.94999999 0.5
5.3000002 0.90000004 0.52986938
5.2912097 0.85000002 0.5
5.3000002 0.85000002 0.50741297
5.3000002 0.84669745 0.5
5.3000002 0.90000004 0.46220857
5.3000002 0.85000002 0.49397156
5.3000002 0.85000002 0.40931121
5.3000002 0.86286575 0.40000001
5.3000002 0.83986199 0.40000001
5.3499999 1.15 0.75175685
5.3499999 1.1517344 0.75
5.3499999 1.1857709 0.80000001
5.3499999 1.2 0.78590626
5.3499999 1.1422602 0.75
5.306911 1.0500001 0.80000001
5.3499999 1.0526766 0.75
5.3479624 1.0500001 0.75
5.3499999 1.0500001 0.75076032
5.3499999 1 0.75318158
5.3499999 0.85000002 0.76184613
5.3499999 0.80000001 0.76939964
5.3499999 1.1761665 0.69999999
5.3499999 1.1 0.72083324
5.3499999 1.2 0.67648977
5.3499999 1.0895499 0.65000004
5.3499999 1.0500001 0.67549801
5.3499999 1 0.66528565
5.3499999 0.94999999 0.67738551
5.3499999 0.90000004 0.69086236
5.3499999 0.87247676 0.65000004
5.3499999 1.2 0.61955726
5.3499999 1.1710719 0.60000002
5.3499999 1.1402348 0.60000002
5.3499999 1.1 0.64616501
5.3172245 1 0.60000002
5.3499999 0.90000004 0.60652328
5.3499999 0.91751641 0.60000002
5.3223681 0.90000004 0.60000002
5.3499999 0.85000002 0.61273503
5.3499999 0.88251793 0.60000002
5.3499999 0.80221695 0.60000002
5.3474264 0.80000001 0.60000002
5.3499999 1.15 0.57277298
5.3499999 0.90000004 0.59470099
5.3499999 0.80000001 0.5995391
5.3499999 0.94999999 0.53924513
5.3499999 0.90000004 0.51901335
5.3499999 0.85071594 0.5
5.3437114 0.85000002 0.5
5.3499999 0.94999999 0.47614464
5.3499999 0.90000004 0.47246572
5.3499999 0.85000002 0.40413323
5.3499999 0.85546392 0.40000001
5.3499999 0.84502727 0.40000001
5.4000001 1.2 0.78833479
5.4000001 1.1944178 0.80000001
5.3763514 1.15 0.75
5.4000001 1.0500001 0.75373888
5.4000001 1.061217 0.75
5.4000001 1 0.75324506
5.4000001 0.94999999 0.7559008
5.4000001 0.90000004 0.76250136
5.4000001 0.85000002 0.75729471
5.4000001 0.80000001 0.76435655
5.4000001 1.15 0.74367028
5.4000001 1.2 0.71441555
5.3767967 1.2 0.69999999
5.4000001 1.1386279 0.69999999
5.3578219 1.1 0.69999999
5.4000001 1.0500001 0.74654919
5.3584461 1.0500001 0.69999999
5.4000001 1.0110687 0.69999999
5.4000001 0.92222893 0.69999999
5.4000001 0.90000004 0.71139044
5.3882613 0.90000004 0.69999999
5.4000001 0.88513082 0.69999999
5.3586311 1.1 0.65000004
5.4000001 1.1327664 0.65000004
5.4000001 1 0.65403146
5.4000001 0.94999999 0.68537199
5.4000001 0.89491636 0.65000004
5.4000001 1.15 0.63567603
5.3658786 1.15 0.60000002
5.4000001 1.2 0.61900365
5.4000001 0.90000004 0.6164636
5.4000001 0.90243787 0.60000002
5.4000001 0.88733101 0.60000002
5.4000001 0.85000002 0.60703439
5.4000001 0.83553326 0.60000002
5.4000001 0.90000004 0.59910077
5.4000001 0.80000001 0.59207922
5.4000001 1 0.52948761
5.4000001 1.0198692 0.5
5.4000001 0.94999999 0.52550143
5.4000001 0.90000004 0.52275628
5.4000001 1 0.4799788
5.4000001 0.94999999 0.48825493
5.4000001 0.90000004 0.46515927
5.4000001 0.90000004 0.40084964
5.4000001 0.90048355 0.40000001
5.3981109 0.90000004 0.40000001
5.3634229 0.85000002 0.40000001
5.4000001 0.89474499 0.40000001
5.4500003 1.1901492 0.80000001
5.4500003 1.2 0.7700178
5.4200296 1.15 0.75
5.4500003 1.15 0.75251526
5.4500003 1.162217 0.75
5.4500003 1.1392362 0.75
5.4500003 1.0500001 0.75032824
5.4500003 1.0508641 0.75
5.4500003 1 0.76243055
5.4500003 0.94999999 0.76429999
5.4500003 0.90000004 0.7706064
5.4500003 0.85000002 0.7725305
5.4500003 0.80000001 0.75423342
5.4500003 1.2 0.70971388
5.4500003 1.1368908 0.69999999
5.4500003 1.0500001 0.74976385
5.4500003 1.0088308 0.69999999
5.4500003 0.95986032 0.69999999
5.4500003 0.94999999 0.71647453
5.4228277 0.94999999 0.69999999
5.4500003 0.91887712 0.69999999
5.4262881 0.90000004 0.69999999
5.4500003 1.1367582 0.65000004
5.4180198 1 0.65000004
5.4500003 1.0089759 0.65000004
5.4500003 0.98976642 0.65000004
5.4500003 0.90164512 0.65000004
5.4438887 0.90000004 0.65000004
5.4500003 1.15 0.64444435
5.4500003 1.2 0.60578436
5.4500003 1 0.64229006
5.4500003 0.92259502 0.60000002
5.4500003 0.85000002 0.61799604
5.4500003 0.87321347 0.60000002
5.4500003 0.80723208 0.60000002
5.4500003 0.90000004 0.58555299
5.4500003 0.80000001 0.59734184
5.4500003 1 0.50090188
5.4500003 1.0004305 0.5
5.4500003 0.99815208 0.5
5.4193187 0.94999999 0.5
5.4500003 0.93938982 0.5
5.4500003 0.90000004 0.52876282
5.4500003 1 0.49942705
5.4500003 0.90000004 0.46162143
5.401855 0.90000004 0.40000001
5.4593253 1.2 0.80000001
5.5 1.2 0.75209558
5.5 1.15 0.7516011
5.4888864 1.2 0.75
5.5 1.1379534 0.75
5.4521465 1.0500001 0.75
5.498168 1 0.75
5.4847364 0.94999999 0.75
5.5 0.92788839 0.75
5.4557762 0.80000001 0.75
5.463191 1.15 0.69999999
5.5 1.1907976 0.69999999
5.5 1.15 0.74849957
5.5 1 0.7485559
5.5 1.0076386 0.69999999
5.5 0.95453072 0.69999999
5.5 0.94504851 0.69999999
5.4973817 0.80000001 0.69999999
5.5 0.80177099 0.69999999
5.5 1.15 0.66110361
5.4878039 1 0.65000004
5.5 0.94521725 0.65000004
5.4622998 0.80000001 0.65000004
5.5 0.83021587 0.65000004
5.5 0.87151784 0.60000002
5.5 0.85000002 0.62363905
5.4566278 0.80000001 0.60000002
5.4539275 1 0.5
5.5 0.94999999 0.52770448
5.464622 0.94999999 0.5
5.4744639 0.90000004 0.5
5.5 0.93078059 0.5
5.2014027 1.25 0.25
5.2000003 1.25 0.25092787
5.25 1.2012858 0.25
5.25 1.2 0.25079736
5.2000003 1.2 0.26149377
5.2526565 1.2 0.25
3.9926345 0.69999999 0.40000001
4 0.73917907 0.40000001
3.9932535 0.69999999 0.34999999
4 0.71700174 0.34999999
4 0.69727224 0.40000001
4 0.69858658 0.34999999
4 0.69999999 0.34570742
4.8468938 1.2 0.40000001
4.8499999 1.1851243 0.40000001
4.8499999 1.1521653 0.34999999
4.8246245 1.2 0.34999999
4.8000002 1.1032388 0.34999999
4.8307414 1.1 0.34999999
4.8000002 1.1 0.35837403
4.8000002 1.0950708 0.34999999
4.8499999 1.0208706 0.34999999
4.8499999 1 0.37824151
4.8105488 1 0.40000001
4.8000002 1.0045897 0.40000001
4.8000002 1.0297734 0.34999999
4.8499999 0.97991747 0.34999999
4.8039684 0.94999999 0.34999999
4.8000002 0.94999999 0.35682783
4.8000002 0.98988217 0.40000001
4.8499999 0.94391233 0.40000001
4.8376212 0.90000004 0.34999999
4.8499999 0.90000004 0.3678849
4.8000002 0.90000004 0.39972714
4.8004603 0.90000004 0.40000001
4.8000002 0.89984113 0.40000001
4.8499999 0.8803075 0.34999999
4.8499999 0.80335838 0.40000001
4.8499999 0.80000001 0.39095959
4.828671 0.80000001 0.40000001
4.8000002 1.1597904 0.30000001
4.8000002 1.2 0.31818077
4.8499999 1.1517729 0.30000001
4.8499999 1.1435074 0.30000001
4.8499999 1.1 0.34587201
4.8000002 1.1372725 0.30000001
4.8000002 1.0500001 0.33001849
4.8499999 1.0500001 0.32839245
4.8499999 0.94999999 0.32861969
4.8499999 0.90000004 0.31736583
4.8000002 0.91018021 0.30000001
4.8000002 0.90000004 0.31704694
4.8373561 0.90000004 0.30000001
4.8000002 0.88521492 0.30000001
4.8005667 1.15 0.25
4.8000002 1.1503804 0.25
4.8499999 1.15 0.29525837
4.8000002 1.1496767 0.25
4.8000002 0.90000004 0.28754601
4.8499999 0.80000001 0.28706497
4.8499999 0.84181893 0.25
4.8000002 0.80000001 0.29841754
4.8000002 0.83362055 0.25
4.9000001 1.15 0.37385994
4.9000001 1.2 0.35625744
4.8862281 1.15 0.40000001
4.8982353 1.2 0.34999999
4.9000001 1.1330045 0.40000001
4.9000001 1.0545247 0.34999999
4.9000001 1.0500001 0.35500154
4.8922801 1.0500001 0.34999999
4.9000001 1.0454696 0.34999999
4.8640537 1 0.34999999
4.8884048 0.90000004 0.34999999
4.9000001 0.90601903 0.34999999
4.9000001 0.94622868 0.40000001
4.8921804 0.80000001 0.34999999
4.9000001 0.81111383 0.34999999
4.9000001 0.8124283 0.40000001
4.9000001 1.15 0.33583573
4.9000001 1.2 0.31560743
4.8587852 1.15 0.30000001
4.9000001 1.1 0.31700432
4.9000001 1 0.31674269
4.9000001 0.94999999 0.33077359
4.9000001 0.80000001 0.31845871
4.9000001 0.80000001 0.29491088
4.9000001 0.84063256 0.25
4.9500003 1.15 0.37767455
4.9500003 1.2 0.3747541
4.9500003 1.1267289 0.40000001
4.9136863 1.0500001 0.34999999
4.9500003 0.96800452 0.40000001
4.9094439 0.94999999 0.40000001
4.9259038 0.94999999 0.34999999
4.9500003 0.96750069 0.34999999
4.9224491 0.80000001 0.34999999
4.9500003 0.80000001 0.36969122
4.9500003 0.80510819 0.40000001
4.9417315 1.2 0.30000001
4.9500003 1.1929944 0.30000001
4.9500003 1.15 0.3053852
4.9500003 1.1 0.32658666
4.9500003 1.0500001 0.30901361
4.9500003 1 0.30768576
4.9500003 0.80578756 0.30000001
4.9161716 0.80000001 0.30000001
4.9500003 0.80000001 0.32496932
4.9500003 1.2 0.29865491
4.9182029 0.85000002 0.25
4.9500003 0.85000002 0.25909653
5 1.15 0.35521081
5 1.2 0.35488942
5 1.133592 0.40000001
5 1.0500001 0.36234424
5 1.0633529 0.40000001
4.9657722 1.0500001 0.40000001
4.9766192 1 0.34999999
5 1.0428885 0.34999999
4.98454 1 0.40000001
5 0.80897772 0.40000001
5 0.80000001 0.38527337
5 1.1863382 0.30000001
5 1.15 0.3471874
5 1.1 0.31501156
5 1.0500001 0.34380144
4.9721594 0.80000001 0.30000001
5 1.15 0.2563037
4.966692 1.2 0.25
4.9911933 1.15 0.25
5 1.1 0.26945427
5 1 0.27668735
5 0.85000002 0.26187578
4.9769239 0.80000001 0.25
5 0.8217203 0.25
5.0025239 1.15 0.34999999
5.026876 1.2 0.34999999
5.0500002 1.120259 0.34999999
5.0500002 1.1262087 0.40000001
5.0065384 1.0500001 0.34999999
5.0500002 1.0760798 0.34999999
5.0500002 1.0500001 0.39581832
5.0417056 1.0500001 0.40000001
5.0500002 1.0458802 0.40000001
5.0500002 0.86472338 0.40000001
5.0500002 0.85000002 0.38673994
5.0436144 0.85000002 0.40000001
5.0500002 0.80000001 0.39195809
5.0169787 1.2 0.30000001
5.0500002 1.1 0.32562995
5.0500002 1.2 0.27957422
5.0500002 1.15 0.2609596
5.0500002 1.1 0.27587098
5.0500002 1.0500001 0.29025203
5.0500002 0.90000004 0.25707123
5.0696406 1.2 0.34999999
5.0999999 1.1813873 0.34999999
5.0999999 1.2 0.35322794
5.0812531 1.1 0.34999999
5.0656891 1.1 0.40000001
5.0999999 1.0500001 0.3950716
5.0999999 1.062138 0.40000001
5.0999999 1.0397642 0.40000001
5.0999999 0.8594799 0.40000001
5.0999999 0.85000002 0.3926681
5.0578609 0.80000001 0.40000001
5.0999999 0.83202744 0.40000001
5.0999999 1.2 0.34615055
5.0999999 1.2 0.27087605
5.0999999 0.92860335 0.25
5.0712924 0.90000004 0.25
5.0999999 0.88328707 0.25
5.1351676 1.15 0.40000001
5.1500001 1.1554284 0.40000001
5.124227 1.15 0.34999999
5.1500001 1.1551286 0.34999999
5.1029949 1.2 0.34999999
5.1500001 1.1399437 0.40000001
5.1500001 1.102339 0.34999999
5.1179028 1.0500001 0.40000001
5.1500001 0.86169595 0.40000001
5.1500001 0.85000002 0.39103666
5.1500001 0.83708936 0.40000001
5.1500001 1.15 0.34491739
5.1500001 1.15 0.25931433
5.1500001 1.2 0.2677567
5.1500001 0.94999999 0.26510355
5.123632 0.90000004 0.25
5.1500001 0.90000004 0.26065835
5.1246719 0.85000002 0.25
5.1500001 0.88234776 0.25
5.1750526 1.15 0.34999999
5.2000003 1.15 0.37431836
5.2000003 1.1571635 0.40000001
5.2000003 1.1419207 0.40000001
5.2000003 0.87656957 0.40000001
5.2000003 0.85000002 0.38534433
5.2000003 0.83559573 0.40000001
5.2000003 1.15 0.2705054
5.2000003 1.2 0.26149377
5.2000003 1.1 0.28489923
5.2000003 0.94173807 0.25
5.2000003 0.94999999 0.25262457
5.177937 0.90000004 0.25
5.2000003 0.85000002 0.26079306
5.2000003 0.87507313 0.25
5.1848798 0.85000002 0.25
5.2000003 0.84491313 0.25
1.65 0.80000001 0.398202
1.65 0.80195838 0.40000001
1.6458329 0.80000001 0.40000001
1.6615629 0.80000001 0.40000001
3.9559143 1.0500001 0.34999999
4 1.0500001 0.36036894
3.991895 1.1 0.34999999
4 1.1 0.36669144
4 1.0350131 0.34999999
4 1.1046712 0.34999999
3.9976373 1.1 0.30000001
4 1.1013739 0.30000001
4 1.0500001 0.33528647
4 1.0940832 0.30000001
4 1.1 0.28086835
2.8500001 -0.68728608 0.34999999
2.8187068 -0.65000004 0.34999999
2.8 -0.65000004 0.3095212
2.8 -0.63226998 0.34999999
2.8 -0.65850276 0.30000001
2.8500001 -0.69150954 0.30000001
2.8416336 -0.69999999 0.25
2.8 -0.68903011 0.25
2.8500001 -0.69999999 0.26020551
2.8621833 -0.69999999 0.34999999
2.8703115 -0.75 0.34999999
2.8737364 -0.80000001 0.34999999
2.8561573 -0.69999999 0.30000001
1.65 0.80000001 0.398202
1.6458329 0.80000001 0.40000001
1.627249 0.75 0.40000001
1.65 0.75 0.39090312
1.6157454 0.69999999 0.40000001
1.65 0.69999999 0.38440245
1.6076653 0.65000004 0.40000001
1.65 0.65000004 0.37976393
1.6191866 0.60000002 0.40000001
1.65 0.60000002 0.3941789
1.6 0.55000001 0.38864321
1.6055046 0.55000001 0.40000001
1.65 0.58537573 0.40000001
1.6 0.56622976 0.40000001
1.6 0.53902876 0.34999999
1.6306105 0.5 0.34999999
1.6403989 0.5 0.40000001
1.65 0.49394727 0.40000001
1.65 0.48694202 0.34999999
1.6 0.51845163 0.30000001
1.6179228 0.5 0.30000001
1.65 0.49021551 0.30000001
1.7 0.75 0.39460808
1.7 0.76895046 0.40000001
1.6615629 0.80000001 0.40000001
1.7 0.69999999 0.38973892
1.7 0.65000004 0.39107233
1.7 0.60000002 0.39395678
1.7 0.58148974 0.40000001
1.7 0.47600293 0.40000001
1.727801 0.75 0.40000001
1.7353586 0.69999999 0.40000001
1.7327881 0.65000004 0.40000001
1.7173109 0.60000002 0.40000001
1.75 0.48729745 0.40000001
1.8000001 0.48670989 0.40000001
4.4000001 1.2 0.39701498
4.4500003 1.2 0.38815218
4.4000001 1.1993194 0.40000001
4.4360266 1.15 0.34999999
4.4442806 1.15 0.40000001
4.4500003 1.1590503 0.34999999
4.4500003 1.1 0.38879427
4.4261823 1.1 0.40000001
4.4500003 1.1437314 0.34999999
4.4000001 1.0883201 0.40000001
4.4500003 1.0725508 0.34999999
4.4000001 1.0683501 0.34999999
4.4000001 1.0147251 0.34999999
4.4227872 1 0.34999999
4.4000001 1 0.35485724
4.4500003 0.98134613 0.34999999
4.4500003 0.94999999 0.37236962
4.4132042 0.94999999 0.34999999
4.4000001 0.9709326 0.34999999
4.4000001 0.90000004 0.35016173
4.4000001 0.90143615 0.34999999
4.4500003 0.91393453 0.34999999
4.4013367 0.90000004 0.34999999
4.4000001 0.89698315 0.34999999
4.4500003 1.15 0.32851008
4.4000001 1.0500001 0.33075404
4.4392953 1.0500001 0.30000001
4.4500003 1.0646272 0.30000001
4.4500003 1.0417572 0.30000001
4.4500003 1 0.34078115
4.4000001 0.94999999 0.34792063
4.4500003 0.90000004 0.34782907
4.4000001 0.85000002 0.34919077
4.4500003 0.85000002 0.33894366
4.4500003 0.80000001 0.30677864
4.4000001 0.80000001 0.32865533
4.4500003 1.0500001 0.29433677
4.4550362 1.2 0.40000001
4.5 1.1649053 0.40000001
4.5 1.1621193 0.34999999
4.4909854 1.1 0.34999999
4.5 1.0015982 0.34999999
4.5 1 0.35143638
4.4910302 1 0.34999999
4.5 0.94999999 0.36675391
4.5 0.90000004 0.352198
4.4819961 0.90000004 0.34999999
4.5 0.89490741 0.34999999
4.483551 1.15 0.30000001
4.5 1.1541632 0.30000001
4.5 1.1360074 0.30000001
4.5 1.1 0.32608524
4.5 1.0556444 0.30000001
4.5 1.0485096 0.30000001
4.5 0.85000002 0.34093553
4.5 0.80000001 0.30222914
4.5 1.15 0.29137805
4.5 1.0500001 0.29446575
4.5500002 1.1626037 0.40000001
4.5500002 1.1825695 0.34999999
4.5500002 1.0206673 0.34999999
4.5500002 1 0.36481962
4.5500002 0.94999999 0.36350587
4.5500002 0.90000004 0.36815664
4.5500002 0.87224388 0.34999999
4.5500002 0.80000001 0.37977508
4.5500002 0.83128589 0.40000001
4.5033116 0.80000001 0.40000001
4.5500002 1.1634449 0.30000001
4.5500002 1.1184504 0.30000001
4.5500002 1.1 0.31657079
4.5500002 1.0500001 0.3297163
4.5019107 1.0500001 0.30000001
4.5500002 0.85000002 0.33837208
4.5500002 0.80000001 0.30227381
4.5500002 1.15 0.26989782
4.5610075 1.15 0.34999999
4.596437 1.15 0.40000001
4.5999999 1.1410547 0.40000001
4.5999999 1.1130732 0.34999999
4.5999999 1.0271455 0.34999999
4.5999999 1 0.37340364
4.5999999 0.94999999 0.36910862
4.5999999 0.91124499 0.34999999
4.5901775 0.90000004 0.34999999
4.5999999 0.80000001 0.36551103
4.5999999 0.84319252 0.40000001
4.5623083 1.15 0.30000001
4.5999999 1.1219267 0.30000001
4.5598235 1.1 0.30000001
4.5999999 1.0790104 0.30000001
4.5999999 1.0500001 0.34075791
4.5999999 0.90000004 0.34694263
4.5999999 0.85000002 0.31974879
4.5999999 0.80000001 0.32134175
4.5999999 1.1 0.25229397
4.6500001 1.15 0.39569649
4.6126161 1.15 0.40000001
4.6500001 1.1528822 0.40000001
4.6267295 1.2 0.34999999
4.6500001 1.1808571 0.34999999
4.6500001 1.2 0.36436093
4.6500001 1.1094297 0.34999999
4.6287608 1 0.34999999
4.6500001 0.95709515 0.34999999
4.6500001 0.94999999 0.35381353
4.6500001 0.94280177 0.34999999
4.6500001 0.85000002 0.39794031
4.6500001 0.85294688 0.40000001
4.6424823 0.85000002 0.40000001
4.6500001 0.80000001 0.36009976
4.6500001 1.1816199 0.30000001
4.6217475 1.2 0.30000001
4.6500001 1.115365 0.30000001
4.6500001 1.0839428 0.30000001
4.6500001 1.0500001 0.341723
4.6500001 1 0.34428617
4.6500001 0.90000004 0.34492126
4.6500001 0.85000002 0.30290541
4.6500001 0.8316555 0.30000001
4.6414475 0.80000001 0.30000001
4.6500001 1.1747408 0.25
4.6300817 1.2 0.25
4.6122298 1.1 0.25
4.6500001 1.1094726 0.25
4.6500001 1.0922006 0.25
4.6500001 0.80000001 0.29196358
4.6902652 1.15 0.34999999
4.7000003 1.15 0.39108962
4.6820712 1.2 0.40000001
4.7000003 1.1528709 0.40000001
4.6821194 1.15 0.40000001
4.7000003 1.1423719 0.40000001
4.7000003 0.96858847 0.34999999
4.7000003 0.94999999 0.37254125
4.685267 0.90000004 0.40000001
4.6810288 0.90000004 0.34999999
4.7000003 0.91431963 0.40000001
4.7000003 0.85000002 0.35531914
4.7000003 0.87676221 0.34999999
4.7000003 0.83128518 0.34999999
4.6769819 0.80000001 0.34999999
4.692554 1.15 0.30000001
4.7000003 1.1 0.33224368
4.7000003 1.1384722 0.30000001
4.6715856 1.1 0.30000001
4.7000003 1.0500001 0.34278357
4.7000003 1 0.33265764
4.7000003 0.85000002 0.32694426
4.6630754 0.80000001 0.30000001
4.7000003 1.1534398 0.25
4.7000003 1.15 0.25967297
4.654758 1.1 0.25
4.7365999 1.15 0.40000001
4.75 1.038331 0.34999999
4.75 1 0.38675132
4.7370334 1 0.34999999
4.75 0.94999999 0.37848553
4.7459335 0.90000004 0.40000001
4.75 0.90000004 0.39765128
4.75 0.86178893 0.34999999
4.75 0.85000002 0.35305756
4.75 0.89948511 0.40000001
4.75 0.83569527 0.34999999
4.75 1.1554235 0.30000001
4.75 1.15 0.30776596
4.7302985 1.15 0.30000001
4.75 1.1 0.34184381
4.75 1.0500001 0.34702441
4.75 0.85000002 0.33351275
4.75 1.1579014 0.25
4.75 0.80000001 0.28269577
4.75 0.81398201 0.25
4.7200527 0.80000001 0.25
4.8000002 1.1032388 0.34999999
4.8000002 1.1 0.35837403
4.7896824 1.1 0.34999999
4.8000002 1.0950708 0.34999999
4.8000002 1.0045897 0.40000001
4.7811618 1 0.40000001
4.8000002 1.0297734 0.34999999
4.8000002 0.98988217 0.40000001
4.8000002 0.94999999 0.35682783
4.8000002 0.90000004 0.39972714
4.8000002 0.89984113 0.40000001
4.7595482 0.85000002 0.34999999
4.7759247 1.2 0.30000001
4.8000002 1.2 0.31818077
4.8000002 1.1597904 0.30000001
4.7674918 1.15 0.30000001
4.8000002 1.1372725 0.30000001
4.8000002 1.0500001 0.33001849
4.8000002 0.90000004 0.31704694
4.8000002 0.91018021 0.30000001
4.7829309 0.90000004 0.30000001
4.8000002 0.88521492 0.30000001
4.7784624 1.2 0.25
4.7985015 1.15 0.25
4.8000002 1.1503804 0.25
4.8000002 1.1496767 0.25
4.8000002 0.90000004 0.28754601
4.8000002 0.80000001 0.29841754
4.8000002 0.83362055 0.25
2.4219489 -0.80000001 0.34999999
2.4000001 -0.80000001 0.35488248
2.4000001 -0.81388724 0.34999999
2.45 -0.85000002 0.3512176
2.45 -0.84640497 0.34999999
2.4481661 -0.85000002 0.34999999
2.45 -0.87972015 0.40000001
2.4352324 -0.90000004 0.40000001
2.4000823 -0.90000004 0.34999999
2.4000001 -0.90004557 0.34999999
2.45 -0.90663254 0.40000001
2.4000001 -0.85000002 0.33565554
2.45 -0.80000001 0.33691558
2.4000001 -0.90000004 0.34992197
2.4000001 -0.90000004 0.28953356
2.4627876 -0.80000001 0.34999999
2.5 -0.80000001 0.37983108
2.5 -0.85000002 0.38919702
